# .PCD v0.7 - Point Cloud Data file format
VERSION 0.7
FIELDS x y z intensity
SIZE 4 4 4 4
TYPE F F F F
COUNT 1 1 1 1
WIDTH 1513
HEIGHT 1
VIEWPOINT 0 0 0 1 0 0 0
POINTS 1513
DATA ascii
-8.8830004 3.789 -1.036 0.16
-8.9049997 3.7820001 -1.038 0.11
-8.915 3.753 -1.038 0.16
-8.9490004 3.734 -1.041 0.11
-8.9589996 3.7049999 -1.041 0.17
-8.9890003 3.6849999 -1.043 0.12
-9.007 3.6589999 -1.044 0.16
-9.0319996 3.6359999 -1.046 0.12
-9.0489998 3.6270001 -1.048 0.17
-9.0760002 3.605 -1.05 0.12
-9.0860004 3.575 -1.05 0.17
-9.1160002 3.5539999 -1.052 0.12
-9.1409998 3.5309999 -1.054 0.17
-9.1730003 3.51 -1.057 0.12
-9.1879997 3.4990001 -1.058 0.17
-9.2299995 3.483 -1.063 0.12
-9.2519999 3.4579999 -1.064 0.17
-9.2819996 3.4360001 -1.067 0.31
-9.309 3.4130001 -1.069 0
-9.3310003 3.3870001 -1.0700001 0
-9.5340004 3.428 -1.097 0
-9.6420002 3.45 -1.1109999 0
-10.303 -2.9260001 -1.171 0.99000001
-10.337 -2.971 -1.176 0.94999999
-10.384 -3.0020001 -1.183 0.73000002
-10.346 -3.026 -1.1799999 0.63
-10.203 -3.02 -1.1619999 0.31999999
-10.118 -3.029 -1.152 0.28
-10.12 -3.0650001 -1.153 0.25
-10.216 -3.1289999 -1.1670001 0
-9.9890003 -3.0769999 -1.138 0
-9.5799999 -3.937 -1.125 0.14
-9.5930004 -3.9779999 -1.1289999 0.16
-9.6389999 -4.0320001 -1.137 0.13
-9.691 -4.072 -1.145 0.43000001
-9.7259998 -4.1220002 -1.152 0.19
-9.6560001 -4.1290002 -1.1440001 0.70999998
-9.6450005 -4.1599998 -1.1440001 0.41999999
-9.3990002 -4.0890002 -1.112 0
-9.8950005 -4.546 -1.193 0
-10.324 -4.7810001 -1.256 0
-10.579 -4.9380002 -1.294 0
-10.812 -5.0669999 -1.3279999 0
-11.331 -5.3530002 -1.404 0
-11.839 -5.6370001 -1.478 0.029999999
3.062 -15.184 -1.7819999 0.49000001
3.0899999 -15.077 -1.7690001 0.2
3.128 -15.022 -1.763 0.16
3.1459999 -14.986 -1.7589999 0.20999999
3.2030001 -15.025 -1.766 0.16
3.2739999 -15.125 -1.78 0.28
3.323 -15.121 -1.781 0.33000001
3.369 -15.106 -1.78 0.30000001
4.4899998 -6.3730001 -0.79799998 0
4.7199998 -6.3540001 -0.81300002 0
4.7909999 -6.3249998 -0.81599998 0
4.8699999 -6.3249998 -0.82200003 0
10.3 1.5549999 -1.206 0
10.252 1.581 -1.2 0
10.21 1.607 -1.1950001 0
10.19 1.62 -1.192 0
10.175 1.651 -1.191 0
10.144 1.679 -1.188 0
10.15 1.712 -1.189 0
10.137 1.743 -1.188 0
10.081 1.766 -1.181 0
10.062 1.779 -1.179 0
10.049 1.809 -1.178 0
10.024 1.837 -1.175 0
10.002 1.865 -1.173 0
9.9790001 1.893 -1.171 0
9.9329996 1.966 -1.1670001 0
9.8900003 1.989 -1.161 0
9.8590002 2.0480001 -1.159 0
9.8430004 2.0769999 -1.158 0
9.8310003 2.1059999 -1.1569999 0
9.8070002 2.1329999 -1.154 0
9.7919998 2.1459999 -1.153 0
9.7770004 2.175 -1.152 0
9.757 2.2030001 -1.15 0
9.7480001 2.233 -1.15 0
9.724 2.2590001 -1.147 0
9.7299995 2.293 -1.149 0
9.7049999 2.303 -1.146 0
9.6920004 2.332 -1.145 0
9.6890001 2.3640001 -1.146 0
9.677 2.3929999 -1.145 0
9.6560001 2.4200001 -1.1440001 0
9.6540003 2.4519999 -1.1440001 0
9.6350002 2.4790001 -1.143 0.07
9.6289997 2.494 -1.142 0.079999998
9.6210003 2.5239999 -1.142 0.14
9.6059999 2.552 -1.141 0.090000004
9.6070004 2.585 -1.143 0.15000001
9.5889997 2.6129999 -1.141 0.19
9.5810003 2.6429999 -1.141 0.18000001
9.585 2.6600001 -1.142 0.41
9.5719995 2.6889999 -1.142 0.22
9.5559998 2.717 -1.141 0.12
9.5530005 2.7490001 -1.142 0
9.5389996 2.777 -1.141 0
9.5439997 2.8110001 -1.143 0
9.54 2.842 -1.1440001 0
9.5860004 2.905 -1.152 0
9.6330004 2.9530001 -1.16 0
9.6689997 2.997 -1.166 0
9.698 3.04 -1.1720001 0
9.7860003 3.102 -1.1849999 0.039999999
9.8859997 3.168 -1.201 0
9.9530001 3.207 -1.211 0
10.072 3.28 -1.23 0
10.216 3.3629999 -1.251 0
10.317 3.4330001 -1.267 0
10.289 3.4590001 -1.265 0
11.035 3.9260001 -1.381 0
11.148 4.006 -1.398 0
11.236 4.0770001 -1.413 0
11.544 4.2519999 -1.46 0
11.699 4.3509998 -1.484 0
12.01 4.5539999 -1.533 0.19
12.052 4.6129999 -1.541 0.13
12.164 4.678 -1.559 0.17
12.284 4.7690001 -1.5779999 0.14
-10.22 6.9070001 -1.464 0.23
-10.478 7.0320001 -1.503 0
-10.051 6.7010002 -1.4299999 0
-10.007 6.6490002 -1.421 0
-9.9809999 6.5869999 -1.414 0.12
-9.9049997 6.493 -1.398 0.090000004
-9.8190002 6.3930001 -1.381 0.17
-9.8140001 6.3460002 -1.377 0.12
-9.7469997 6.2600002 -1.363 0.14
-9.7080002 6.1919999 -1.354 0.23
-9.5699997 6.0409999 -1.327 0.34
-9.5629997 5.9949999 -1.323 0.17
-9.5380001 5.9369998 -1.316 0.1
-9.4829998 5.862 -1.304 0.15000001
-9.4350004 5.7919998 -1.294 0.090000004
-9.4060001 5.7329998 -1.2869999 0.15000001
-9.3330002 5.6690001 -1.274 0.1
-9.3170004 5.6199999 -1.268 0.16
-9.2799997 5.5580001 -1.26 0.1
-9.2379999 5.493 -1.25 0.15000001
-9.2049999 5.4349999 -1.243 0.16
-9.1750002 5.3779998 -1.235 0.16
-9.1260004 5.3309999 -1.226 0.16
-9.085 5.2690001 -1.217 0.23
-9.0629997 5.2179999 -1.211 0.23999999
-9.0229998 5.158 -1.2029999 0.25
-8.9890003 5.1009998 -1.1950001 0.25
-8.9530001 5.0440001 -1.187 0.11
-8.9130001 4.9850001 -1.178 0.15000001
-8.8800001 4.948 -1.1720001 0.28999999
-8.8690004 4.9050002 -1.168 0.25999999
-8.8360004 4.8509998 -1.16 0.25999999
-8.8129997 4.802 -1.154 0.25999999
-8.7930002 4.756 -1.149 0.25999999
-8.7620001 4.704 -1.142 0.27000001
-8.7309999 4.652 -1.135 0.11
-8.7119999 4.625 -1.131 0.17
-8.6789999 4.573 -1.124 0.12
-8.6709995 4.533 -1.1210001 0.17
-8.6599998 4.493 -1.117 0.30000001
-8.6389999 4.448 -1.1109999 0.2
-8.6280003 4.408 -1.108 0.19
-8.6090002 4.3639998 -1.103 0.23
-8.6009998 4.3439999 -1.101 0.2
-8.5970001 4.3080001 -1.098 0.28
-8.6370001 4.2940001 -1.102 0.11
-8.6330004 4.2579999 -1.099 0.16
-8.6339998 4.2249999 -1.097 0.1
-8.6520004 4.1999998 -1.098 0.14
-8.6540003 4.184 -1.097 0.17
-8.6490002 4.1479998 -1.095 0.19
-8.665 4.1230001 -1.095 0.22
-8.6529999 4.0840001 -1.091 0.20999999
-8.6890001 4.0679998 -1.095 0.20999999
-8.6949997 4.0370002 -1.094 0.25999999
-8.6999998 4.006 -1.0930001 0.20999999
-8.7229996 4 -1.095 0.30000001
-8.7460003 3.977 -1.097 0.18000001
-8.7489996 3.9460001 -1.095 0.34999999
-8.7729998 3.9230001 -1.097 0.2
-8.7919998 3.8989999 -1.098 0.34
-8.8149996 3.8759999 -1.1 0.18000001
-8.8290005 3.849 -1.1 0.34999999
-8.8439999 3.839 -1.101 0.18000001
-8.8529997 3.8099999 -1.101 0.34999999
-8.8809996 3.789 -1.103 0.18000001
-8.8909998 3.76 -1.103 0.36000001
-8.927 3.7420001 -1.1059999 0.19
-8.9379997 3.714 -1.1059999 0.36000001
-8.9610004 3.707 -1.109 0.19
-8.974 3.6789999 -1.109 0.34999999
-9 3.6570001 -1.1109999 0.19
-9.0120001 3.6289999 -1.1109999 0.34999999
-9.0550003 3.6129999 -1.1160001 0.19
-9.0679998 3.585 -1.1160001 0.37
-9.1049995 3.5669999 -1.12 0.19
-9.1049995 3.55 -1.119 0.38
-9.1269999 3.526 -1.1210001 0.23
-9.1619997 3.506 -1.124 0.2
-9.1949997 3.4860001 -1.127 0.37
-9.2209997 3.4619999 -1.1289999 0.22
-9.2620001 3.444 -1.1339999 0.2
-9.2869997 3.421 -1.136 0.37
-9.3280001 3.4189999 -1.141 0.20999999
-9.3629999 3.398 -1.1440001 0.25
-9.5310001 3.425 -1.1670001 0
-9.6280003 3.358 -1.176 0.51999998
-10.398 -2.888 -1.256 0.15000001
-10.398 -2.9230001 -1.258 0.40000001
-10.536 -2.9979999 -1.278 0
-10.288 -2.997 -1.2460001 0.36000001
-10.222 -3.0120001 -1.238 0
-10.181 -3.0869999 -1.2359999 0.56999999
-10.076 -3.0899999 -1.222 0
-9.9720001 -3.092 -1.209 0
-9.9510002 -3.1199999 -1.207 0
-9.9370003 -3.1500001 -1.207 0
-9.9750004 -3.1960001 -1.214 0
-9.9200001 -3.1960001 -1.207 0
-9.9219999 -3.2309999 -1.2079999 0
-9.8979998 -3.2579999 -1.206 0
-9.8470001 -3.2750001 -1.2 0
-9.8549995 -3.312 -1.2029999 0
-9.8319998 -3.339 -1.201 0
-9.7969999 -3.3610001 -1.198 0
-9.7519999 -3.3629999 -1.192 0
-9.7600002 -3.4000001 -1.1950001 0
-9.7399998 -3.427 -1.194 0
-9.7290001 -3.4579999 -1.194 0.1
-9.7539997 -3.5009999 -1.199 0.2
-9.7220001 -3.5239999 -1.196 0.16
-9.6090002 -3.517 -1.181 0
-9.7130003 -3.573 -1.197 0
-9.7040005 -3.6040001 -1.197 0
-9.6920004 -3.635 -1.197 0
-9.6940002 -3.6700001 -1.199 0
-9.684 -3.701 -1.199 0
-9.6739998 -3.7320001 -1.199 0
-9.6479998 -3.74 -1.196 0
-9.6800003 -3.858 -1.206 0.37
-9.7580004 -3.925 -1.219 0.50999999
-9.7150002 -3.9419999 -1.215 0.75999999
-9.6330004 -3.944 -1.205 0.55000001
-9.6719999 -3.9779999 -1.211 0.14
-9.7989998 -4.1030002 -1.234 0.80000001
-9.7399998 -4.1139998 -1.227 0.86000001
-9.7869997 -4.171 -1.2359999 0.31999999
-9.7580004 -4.1939998 -1.233 0.79000002
-9.7030001 -4.2069998 -1.227 0.51999998
-9.7849998 -4.2610002 -1.24 0
-10.234 -4.6890001 -1.319 0
-10.358 -4.7659998 -1.339 0
-10.644 -4.9400001 -1.3839999 0
-11.049 -5.1700001 -1.446 0
-11.691 -5.5180001 -1.544 0
-11.994 -5.7080002 -1.592 0
10.221 1.548 -1.265 0
10.217 1.58 -1.265 0
10.184 1.608 -1.261 0
9.5690002 2.405 -1.199 0
9.5710001 2.437 -1.2 0
9.5690002 2.4690001 -1.201 0
9.552 2.497 -1.199 0
9.54 2.51 -1.198 0
9.4899998 2.6559999 -1.197 0
9.4779997 2.6849999 -1.196 0
9.4890003 2.704 -1.199 0
9.7889996 3.108 -1.256 0
9.8610001 3.164 -1.268 0
9.9090004 3.214 -1.276 0.12
10 3.26 -1.291 0
10.11 3.3310001 -1.309 0
10.263 3.4170001 -1.3329999 0
10.989 3.9070001 -1.4529999 0
12.022 4.507 -1.619 0
11.985 4.5370002 -1.6160001 0
12.008 4.5879998 -1.622 0
12.117 4.6739998 -1.64 0.059999999
-10.179 6.8839998 -1.541 0
-10.069 6.7179999 -1.515 0.34999999
-10.036 6.6500001 -1.506 0.23
-9.8719997 6.4959998 -1.475 0
-9.835 6.4499998 -1.467 0
-9.8079996 6.388 -1.459 0
-9.7309999 6.2940001 -1.442 0
-9.691 6.2249999 -1.432 0
-9.6590004 6.1609998 -1.424 0
-9.6079998 6.086 -1.4119999 0
-9.5459995 6.026 -1.4 0
-9.5080004 5.96 -1.39 0
-9.4530001 5.8839998 -1.378 0
-9.3870001 5.802 -1.364 0
-9.3439999 5.7350001 -1.354 0
-9.3070002 5.671 -1.345 0
-9.2720003 5.6100001 -1.336 0
-9.2379999 5.5700002 -1.329 0
-9.1899996 5.5009999 -1.318 0
-9.1610003 5.4439998 -1.3099999 0
-9.1169996 5.3790002 -1.3 0
-9.0810003 5.3189998 -1.2920001 0
-9.0380001 5.256 -1.2819999 0
-8.9980001 5.1950002 -1.273 0
-8.9420004 5.1440001 -1.262 0
-8.9289999 5.099 -1.257 0
-8.9020004 5.046 -1.25 0
-8.8710003 4.9920001 -1.243 0
-8.823 4.928 -1.232 0
-8.8109999 4.8850002 -1.228 0.12
-8.809 4.848 -1.225 0.23999999
-8.7390003 4.7909999 -1.2130001 0
-8.7049999 4.737 -1.205 0
-8.6409998 4.6669998 -1.192 0
-8.6280003 4.625 -1.188 0
-8.599 4.5739999 -1.181 0
-8.5710001 4.5250001 -1.174 0
-8.5450001 4.494 -1.169 0
-8.5349998 4.454 -1.165 0
-8.533 4.4190001 -1.1619999 0
-8.5129995 4.375 -1.1569999 0
-8.5059996 4.3369999 -1.153 0
-8.4969997 4.2989998 -1.15 0
-8.4919996 4.263 -1.147 0
-8.4849997 4.243 -1.145 0
-8.5389996 4.1690001 -1.147 0.5
-8.4219999 4.079 -1.126 0
-8.5869999 4.0929999 -1.148 0
-8.7250004 4.1430001 -1.169 0
-8.6470003 4.072 -1.155 0
-8.5930004 4.0139999 -1.1440001 0
-8.5950003 3.9820001 -1.143 0
-8.5860004 3.9449999 -1.1390001 0
-8.5749998 3.9070001 -1.136 0
-8.5679998 3.888 -1.1339999 0
-8.5909996 3.8659999 -1.135 0
-8.6199999 3.846 -1.138 0
-8.6350002 3.8199999 -1.1390001 0
-8.6549997 3.7969999 -1.14 0
-8.6680002 3.77 -1.14 0
-8.691 3.7479999 -1.142 0
-8.6899996 3.7309999 -1.14 0
-8.71 3.707 -1.142 0
-8.7399998 3.688 -1.145 0
-8.7589998 3.6630001 -1.146 0
-8.7910004 3.6440001 -1.149 0
-8.802 3.6170001 -1.149 0
-8.8280001 3.595 -1.151 0
-8.8389997 3.5829999 -1.152 0
-8.8649998 3.5610001 -1.154 0
-8.8800001 3.5350001 -1.155 0
-8.915 3.517 -1.158 0
-8.9440002 3.4960001 -1.161 0
-8.9700003 3.474 -1.163 0
-8.9960003 3.451 -1.166 0
-9.0200005 3.444 -1.169 0
-9.0430002 3.421 -1.17 0
-9.1000004 3.4100001 -1.177 0
-9.1350002 3.3900001 -1.181 0
-9.1719999 3.3710001 -1.1849999 0
-9.2139997 3.3540001 -1.1900001 0
-9.2410002 3.3310001 -1.192 0
-9.2849998 3.3310001 -1.198 0
-9.4619999 3.3610001 -1.223 0
-9.526 3.3499999 -1.2309999 0
-9.5010004 3.2739999 -1.224 0
-9.6169996 -3.3380001 -1.243 0
-9.6090002 -3.3529999 -1.243 0
-9.6059999 -3.385 -1.244 0
-9.533 -3.5799999 -1.243 0
-9.5109997 -3.743 -1.249 0
-9.5950003 -3.7939999 -1.262 0
-9.6149998 -3.836 -1.267 0.11
-9.632 -3.878 -1.272 0.15000001
-9.6199999 -3.908 -1.272 0.30000001
-9.8109999 -4.0209999 -1.303 0
-9.5970001 -3.9690001 -1.272 0
-9.6560001 -4.0289998 -1.283 0
-9.6149998 -4.0300002 -1.278 0.050000001
-9.618 -4.0669999 -1.28 0.2
-9.618 -4.1020002 -1.2819999 0.13
-9.6020002 -4.131 -1.281 0.34
-9.7119999 -4.2150002 -1.301 0
-9.8079996 -4.4580002 -1.327 0
-10.178 -4.664 -1.387 0
-10.402 -4.8060002 -1.424 0
-11.216 -5.244 -1.5549999 0
-11.662 -5.4959998 -1.627 0
-11.924 -5.665 -1.671 0
10.289 1.562 -1.322 0.49000001
10.233 1.587 -1.314 0.27000001
10.191 1.613 -1.309 0.1
10.167 1.625 -1.306 0
10.152 1.656 -1.304 0
10.114 1.682 -1.299 0
10.079 1.709 -1.295 0
10.076 1.7410001 -1.295 0
9.8179998 2.0150001 -1.266 0
9.7559996 2.0339999 -1.258 0
9.7180004 2.0580001 -1.253 0
9.7639999 2.0999999 -1.261 0
9.7270002 2.1240001 -1.256 0
9.7159996 2.1370001 -1.255 0
9.7159996 2.1700001 -1.256 0
9.6899996 2.1960001 -1.253 0
9.6739998 2.224 -1.252 0
9.6529999 2.2509999 -1.25 0
9.6400003 2.28 -1.249 0
9.6309996 2.3099999 -1.249 0
9.6140003 2.322 -1.247 0
9.6049995 2.352 -1.2460001 0
9.6239996 2.388 -1.25 0
9.5880003 2.411 -1.2460001 0
9.592 2.444 -1.248 0.12
9.5710001 2.471 -1.2460001 0.23
9.5629997 2.5009999 -1.2460001 0.2
9.5530005 2.5150001 -1.245 0.18000001
9.5170002 2.5369999 -1.24 0.15000001
9.507 2.566 -1.24 0.15000001
9.7709999 2.671 -1.2819999 0.77999997
9.5080004 2.631 -1.243 0.44999999
9.5299997 2.6689999 -1.247 0
9.4910002 2.674 -1.242 0
9.4899998 2.7060001 -1.243 0
9.4840002 2.737 -1.244 0
9.5019999 2.7739999 -1.248 0
9.4969997 2.8050001 -1.248 0
9.5279999 2.8469999 -1.2539999 0
9.5609999 2.8740001 -1.26 0
9.5939999 2.9159999 -1.267 0
9.6239996 2.9590001 -1.273 0
9.6850004 3.0109999 -1.283 0
9.7519999 3.066 -1.295 0.050000001
9.7969999 3.1140001 -1.304 0.14
9.882 3.175 -1.318 0.15000001
9.9440002 3.2130001 -1.3279999 0.14
10.066 3.2869999 -1.349 0.14
10.159 3.3529999 -1.365 0
10.304 3.438 -1.388 0
12.137 4.527 -1.694 0.2
12.112 4.5599999 -1.692 0.20999999
12.111 4.6030002 -1.694 0.18000001
12.089 4.6389999 -1.693 0.31999999
12.15 4.7059999 -1.705 0.12
12.338 4.802 -1.7359999 0.31
-10.125 6.7849998 -1.582 0.46000001
-10.049 6.6880002 -1.5650001 0.12
-9.9840002 6.5999999 -1.55 0.41
-9.9630003 6.5640001 -1.545 0
-9.9420004 6.5050001 -1.5369999 0.13
-9.8690004 6.414 -1.521 0.16
-9.7910004 6.3200002 -1.5039999 0.23
-9.7609997 6.257 -1.495 0.11
-9.7049999 6.1789999 -1.482 0.079999998
-9.6529999 6.1030002 -1.47 0.079999998
-9.559 5.9809999 -1.449 0.16
-9.5120001 5.9099998 -1.438 0.079999998
-9.4630003 5.8390002 -1.426 0.079999998
-9.4139996 5.7680001 -1.415 0.090000004
-9.3640003 5.698 -1.403 0.079999998
-9.3290005 5.6360002 -1.3940001 0.079999998
-9.2749996 5.5840001 -1.383 0.079999998
-9.2279997 5.5170002 -1.372 0.090000004
-9.2110004 5.467 -1.367 0.14
-9.1599998 5.3979998 -1.355 0.090000004
-9.1339998 5.3449998 -1.348 0.15000001
-9.1099997 5.2919998 -1.341 0.090000004
-9.0649996 5.2470002 -1.332 0.14
-9.0159998 5.1820002 -1.321 0.1
-8.9960003 5.1329999 -1.3150001 0.14
-8.9619999 5.0760002 -1.306 0.1
-8.9280005 5.02 -1.298 0.14
-8.8889999 4.961 -1.289 0.20999999
-8.868 4.9130001 -1.283 0.2
-8.835 4.8769999 -1.276 0
-8.7810001 4.8119998 -1.2640001 0
-8.7299995 4.7480001 -1.253 0.079999998
-8.6809998 4.6859999 -1.243 0.079999998
-8.6549997 4.638 -1.2359999 0.079999998
-8.6169996 4.5830002 -1.227 0.14
-8.5959997 4.5370002 -1.222 0.23
-8.5880003 4.5159998 -1.219 0.27000001
-8.5629997 4.4679999 -1.2130001 0.19
-8.5539999 4.4299998 -1.209 0.19
-8.5450001 4.3909998 -1.205 0.20999999
-8.533 4.3509998 -1.201 0.2
-8.5299997 4.316 -1.198 0.22
-8.5229998 4.296 -1.196 0.18000001
-8.4989996 4.25 -1.1900001 0
-8.507 4.2210002 -1.189 0.13
-8.5450001 4.2059999 -1.193 0
-8.5010004 4.152 -1.184 0.12
-8.6239996 4.1440001 -1.199 0.44999999
-8.5930004 4.1129999 -1.193 0
-8.7670002 4.1290002 -1.217 0.16
-8.5380001 3.9890001 -1.178 0.18000001
-8.6490002 4.007 -1.194 0
-8.6379995 3.9690001 -1.1900001 0
-8.6199999 3.928 -1.186 0.079999998
-8.6049995 3.905 -1.182 0.079999998
-8.6199999 3.8800001 -1.183 0.16
-8.6140003 3.8440001 -1.1799999 0.27000001
-8.6370001 3.822 -1.182 0.28
-8.6569996 3.7980001 -1.183 0.27000001
-8.6719999 3.773 -1.183 0.28
-8.6969995 3.7509999 -1.1849999 0.28999999
-8.7040005 3.7379999 -1.186 0.28999999
-8.7320004 3.717 -1.188 0.25999999
-8.7510004 3.6930001 -1.189 0.27000001
-8.7700005 3.6689999 -1.1900001 0.22
-8.8050003 3.651 -1.194 0.38999999
-8.8149996 3.622 -1.194 0
-8.8739996 3.6140001 -1.201 0
-8.8710003 3.596 -1.2 0
-8.9300003 3.5869999 -1.2079999 0
-8.9390001 3.559 -1.207 0
-8.9230003 3.52 -1.2029999 0
-8.9580002 3.5009999 -1.207 0
-9.0019999 3.4860001 -1.212 0
-9.0290003 3.464 -1.214 0
-9.0509996 3.4560001 -1.217 0
-9.092 3.438 -1.222 0
-9.1359997 3.4219999 -1.227 0
-9.1520004 3.3959999 -1.228 0
-9.243 3.3959999 -1.24 0
-9.2309999 3.359 -1.237 0.1
-9.2489996 3.349 -1.239 0.18000001
-9.2709999 3.3239999 -1.24 0.13
-9.3210001 3.309 -1.247 0.14
-9.3400002 3.2820001 -1.248 0.16
-9.3970003 3.2690001 -1.255 0.16
-9.4379997 3.25 -1.26 0.16
-10.166 -2.849 -1.344 0
-10.09 -2.862 -1.334 0
-10.063 -2.8710001 -1.33 0
-10.016 -2.892 -1.325 0
-9.993 -2.9189999 -1.323 0
-9.9580002 -2.9430001 -1.319 0
-9.9239998 -2.967 -1.3150001 0
-9.9160004 -2.9979999 -1.3150001 0
-9.915 -3.0150001 -1.316 0
-9.8199997 -3.1210001 -1.307 0
-9.7869997 -3.1789999 -1.3049999 0
-9.7580004 -3.1860001 -1.301 0
-9.7629995 -3.2219999 -1.304 0
-9.7390003 -3.2479999 -1.301 0
-9.6990004 -3.2679999 -1.2970001 0
-9.691 -3.299 -1.2970001 0
-9.6689997 -3.326 -1.295 0
-9.6429996 -3.3510001 -1.293 0
-9.6490002 -3.3699999 -1.295 0
-9.6309996 -3.398 -1.294 0
-9.6280003 -3.431 -1.295 0
-9.6210003 -3.4619999 -1.295 0
-9.5819998 -3.516 -1.293 0
-9.507 -4.131 -1.316 0
-9.8100004 -4.4660001 -1.376 0.20999999
-10.229 -4.697 -1.446 0
-10.51 -4.8670001 -1.494 0
-10.974 -5.1040001 -1.5700001 0
-11.959 -5.6570001 -1.734 0.14
-12.06 -5.7519999 -1.7539999 0.14
3.6830001 -7.0240002 -0.95999998 0
10.209 1.617 -1.386 0.56999999
10.181 1.645 -1.382 0.79000002
10.122 1.652 -1.374 0.99000001
10.247 1.706 -1.3940001 0.74000001
10.322 1.751 -1.406 0
10.039 1.7359999 -1.363 0
10.01 1.7640001 -1.36 0
10.017 1.7970001 -1.3609999 0
9.9720001 1.822 -1.355 0
9.9440002 1.8329999 -1.351 0
9.9239998 1.862 -1.349 0
9.9049997 1.89 -1.347 0
9.8739996 1.916 -1.3430001 0
9.8579998 1.946 -1.342 0
9.8730001 1.9809999 -1.345 0
9.8260002 2.0039999 -1.339 0.1
9.592 2.0039999 -1.304 0
9.7790003 2.0739999 -1.334 0
9.7419996 2.098 -1.329 0
9.7349997 2.1289999 -1.329 0
9.7089996 2.155 -1.326 0
9.6899996 2.1830001 -1.324 0
9.6850004 2.198 -1.324 0
9.651 2.2219999 -1.3200001 0
9.6499996 2.2539999 -1.321 0
9.6450005 2.2850001 -1.321 0
9.632 2.3139999 -1.3200001 0
9.6190004 2.342 -1.319 0
9.5900002 2.3510001 -1.3150001 0
9.5860004 2.3829999 -1.316 0
9.5769997 2.4119999 -1.3150001 0
9.5649996 2.441 -1.3150001 0
9.5579996 2.471 -1.3150001 0
9.5459995 2.5 -1.314 0
9.5500002 2.517 -1.3150001 0
9.5340004 2.5450001 -1.314 0.07
9.5220003 2.5739999 -1.314 0.14
9.5179996 2.605 -1.314 0.1
9.5080004 2.635 -1.314 0
9.5 2.664 -1.314 0
9.5030003 2.697 -1.316 0
9.5019999 2.7130001 -1.316 0
9.4989996 2.7449999 -1.317 0
9.4919996 2.7750001 -1.318 0
9.5159998 2.8150001 -1.323 0
9.5279999 2.8510001 -1.326 0
9.5699997 2.8959999 -1.334 0
9.599 2.937 -1.34 0
9.6660004 2.974 -1.352 0
9.7340002 3.029 -1.364 0.12
9.7550001 3.069 -1.369 0.22
9.809 3.119 -1.3789999 0.20999999
9.8760004 3.175 -1.392 0
10.023 3.256 -1.4170001 0.13
10.074 3.3080001 -1.427 0.23
10.062 3.3210001 -1.426 0
10.301 3.4349999 -1.466 0
-10.005 6.7129998 -1.648 0.57999998
-10.048 6.6960001 -1.652 0
-9.9989996 6.618 -1.64 0.12
-9.9309998 6.5279999 -1.623 0.12
-9.9910002 6.5229998 -1.63 0.25999999
-9.849 6.408 -1.603 0.16
-9.8610001 6.3709998 -1.601 0.18000001
-9.7930002 6.283 -1.585 0.12
-9.7360001 6.204 -1.571 0
-9.6619997 6.1139998 -1.554 0.14
-9.5799999 5.9990001 -1.534 0.5
-9.5200005 5.9190001 -1.52 0.11
-9.4820004 5.8540001 -1.51 0.16
-9.4350004 5.7839999 -1.498 0.16
-9.3870001 5.7140002 -1.4859999 0.23
-9.342 5.6459999 -1.475 0.23999999
-9.2939997 5.5770001 -1.4630001 0.23999999
-9.25 5.5310001 -1.454 0.25
-9.2150002 5.4699998 -1.444 0.23999999
-9.1669998 5.4029999 -1.433 0.25999999
-9.132 5.3429999 -1.423 0.25
-9.1000004 5.2859998 -1.415 0.11
-9.0489998 5.2179999 -1.403 0.15000001
-9.007 5.1560001 -1.392 0.16
-8.9650002 5.1129999 -1.3839999 0.18000001
-8.9180002 5.0489998 -1.372 0.18000001
-8.9020004 5.0029998 -1.367 0.12
-8.8730001 4.9499998 -1.359 0.15000001
-8.8389997 4.895 -1.35 0.12
-8.7869997 4.829 -1.3380001 0.14
-8.7279997 4.7789998 -1.327 0.20999999
-8.6789999 4.717 -1.316 0.11
-8.7370005 4.7129998 -1.323 0
-8.8179998 4.7210002 -1.335 0.07
-8.8450003 4.6999998 -1.337 0.14
-8.6590004 4.566 -1.302 0.23
-8.5249996 4.46 -1.276 0.14
-8.5120001 4.4369998 -1.273 0.38999999
-8.4980001 4.395 -1.268 0.23999999
-8.4980001 4.3610001 -1.266 0.25
-8.4729996 4.3150001 -1.2589999 0.20999999
-8.4940004 4.2919998 -1.26 0.43000001
-8.4879999 4.2550001 -1.257 0.23
-8.467 4.2119999 -1.251 0.2
-8.4580002 4.1900001 -1.248 0.30000001
-8.4980001 4.177 -1.253 0.18000001
-8.3879995 4.0900002 -1.232 0
-8.6800003 4.1999998 -1.28 0
-8.6920004 4.138 -1.277 0.13
-8.7250004 4.1199999 -1.281 0.17
-8.658 4.072 -1.268 0.55000001
-8.6129999 4.0180001 -1.258 0.27000001
-8.5469999 3.954 -1.245 0.11
-8.6459999 3.967 -1.26 0.15000001
-8.6280003 3.9260001 -1.255 0.75999999
-8.4940004 3.832 -1.23 0.38999999
-8.5959997 3.846 -1.245 0.18000001
-8.5749998 3.8210001 -1.2410001 0.13
-8.5819998 3.7909999 -1.24 0.28999999
-8.5249996 3.734 -1.228 0.19
-8.6470003 3.7550001 -1.247 0.090000004
-8.677 3.7360001 -1.25 0.15000001
-8.6809998 3.7060001 -1.248 0.1
-8.7060003 3.684 -1.251 0.079999998
-8.7370005 3.681 -1.255 0.2
-8.7810001 3.6670001 -1.26 0.25
-8.809 3.6470001 -1.263 0.22
-8.8500004 3.631 -1.268 0.19
-8.8850002 3.6129999 -1.272 0.46000001
-8.8909998 3.5829999 -1.271 0.25
-8.8599997 3.5539999 -1.265 0.12
-8.8760004 3.5280001 -1.266 0.16
-8.8929996 3.503 -1.267 0.28999999
-8.9280005 3.484 -1.271 0.16
-8.9720001 3.4690001 -1.276 0.14
-8.96 3.4319999 -1.272 0.16
-9.0010004 3.415 -1.277 0.28999999
-9.0279999 3.4100001 -1.281 0.23999999
-9.0459995 3.3840001 -1.2819999 0.27000001
-9.0719995 3.3610001 -1.285 0.27000001
-9.1059999 3.3410001 -1.288 0.25999999
-9.1450005 3.323 -1.293 0.25
-9.1619997 3.2969999 -1.294 0.20999999
-9.2250004 3.2869999 -1.303 0.41
-9.2370005 3.2750001 -1.304 0.20999999
-9.2959995 3.263 -1.312 0.25
-9.3310003 3.2420001 -1.316 0.2
-9.3970003 3.233 -1.325 0.20999999
-9.4569998 3.22 -1.3329999 0.12
-9.8710003 -3.02 -1.3839999 0
-9.7980003 -3.1159999 -1.378 0.73000002
-9.7620001 -3.138 -1.373 0.99000001
-9.7290001 -3.1619999 -1.37 0.99000001
-9.7469997 -3.201 -1.374 0.93000001
-9.6750002 -3.2119999 -1.364 0.99000001
-9.71 -3.24 -1.3710001 0.97000003
-9.6040001 -3.2379999 -1.355 0.99000001
-9.6700001 -3.2939999 -1.368 0.99000001
-9.5679998 -3.293 -1.353 0.99000001
-9.5769997 -3.3299999 -1.3559999 0.99000001
-9.5450001 -3.3529999 -1.352 0.99000001
-9.533 -3.382 -1.352 0.99000001
-9.533 -3.3989999 -1.353 0.99000001
-9.5190001 -3.428 -1.352 0.99000001
-9.5100002 -3.4579999 -1.353 0.99000001
-9.4989996 -3.4879999 -1.353 0.99000001
-9.4860001 -3.517 -1.352 0.99000001
-9.3879995 -3.5150001 -1.3380001 0.86000001
-9.5380001 -3.5869999 -1.364 0.28999999
-9.5039997 -3.609 -1.36 0.44999999
-9.4910002 -3.638 -1.36 0.44
-9.4779997 -3.6670001 -1.359 0.41
-9.4449997 -3.723 -1.358 0.66000003
-9.4370003 -3.7539999 -1.358 0.34
-9.4540005 -3.7780001 -1.362 0.31
-9.4309998 -3.803 -1.36 0.2
-9.4350004 -3.839 -1.363 0.11
-9.4540005 -3.882 -1.368 0
-9.4239998 -3.904 -1.365 0
-9.4130001 -3.934 -1.365 0
-9.4099998 -3.9679999 -1.367 0
-9.4329996 -3.9949999 -1.372 0
-9.4399996 -4.033 -1.375 0
-9.4619999 -4.0770001 -1.381 0
-9.7360001 -4.395 -1.439 0.12
-9.8000002 -4.461 -1.452 0.18000001
-10.252 -4.704 -1.53 0
-10.638 -4.921 -1.598 0
-10.895 -5.0799999 -1.6440001 0.12
-12.03 -5.6300001 -1.837 0.18000001
-12.021 -5.6719999 -1.839 0.36000001
-12.039 -5.7259998 -1.845 0.25
-12.303 -5.8990002 -1.893 0.16
-12.333 -5.961 -1.901 0.34
3.6630001 -7.039 -1.018 0
4.816 -6 -0.98100001 0.62
4.79 -5.9289999 -0.97000003 0
10.607 1.7869999 -1.5829999 0.050000001
10.595 1.8200001 -1.582 0.16
10.605 1.8559999 -1.584 0.2
10.617 1.892 -1.587 0.059999999
10.733 1.948 -1.607 0.15000001
10.065 2.253 -1.512 0.19
10.019 2.2590001 -1.506 0.23
9.9790001 2.283 -1.5 0.22
9.9680004 2.3139999 -1.5 0.31
9.9469995 2.342 -1.497 0.30000001
9.9259996 2.3699999 -1.495 0.23999999
9.9029999 2.3970001 -1.493 0.34999999
9.882 2.425 -1.4910001 0.25999999
9.8879995 2.4430001 -1.492 0.38
9.8760004 2.473 -1.4910001 0.30000001
9.8669996 2.5039999 -1.4910001 0.31
9.8450003 2.5309999 -1.489 0.25
9.7950001 2.5510001 -1.482 0.28
9.7399998 2.569 -1.474 0.27000001
9.6149998 2.5680001 -1.455 0.25
9.5839996 2.576 -1.451 0.33000001
9.5270004 2.592 -1.443 0.36000001
9.5129995 2.6210001 -1.442 0.38
9.4989996 2.6489999 -1.441 0.30000001
9.4870005 2.678 -1.4400001 0.41
9.4840002 2.7090001 -1.441 0.47
9.4849997 2.7420001 -1.443 0.38999999
9.5340004 2.7720001 -1.451 0.25999999
9.5889997 2.8210001 -1.462 0.23999999
9.6029997 2.858 -1.466 0.33000001
9.6219997 2.8970001 -1.47 0.34
9.6529999 2.9389999 -1.477 0.28999999
9.7060003 2.9890001 -1.487 0.28999999
9.7390003 3.016 -1.494 0.18000001
9.7180004 3.043 -1.492 0.2
9.7200003 3.0769999 -1.494 0.31
9.7799997 3.1300001 -1.505 0.039999999
9.8409996 3.184 -1.517 0.07
9.9530001 3.2550001 -1.538 0.039999999
10.049 3.3050001 -1.5549999 0.07
-10.063 6.7140002 -1.796 0.11
-10.071 6.6729999 -1.793 0.34999999
-10.018 6.5929999 -1.779 0.2
-9.8529997 6.441 -1.744 0
-9.9099998 6.4559999 -1.753 0
-9.8579998 6.3779998 -1.739 0.029999999
-9.8769999 6.3460002 -1.739 0.039999999
-9.9169998 6.3280001 -1.743 0.07
-9.9449997 6.302 -1.744 0.039999999
-9.9829998 6.2820001 -1.748 0.13
-9.6210003 5.9510002 -1.671 0
-9.5780001 5.8829999 -1.66 0
-9.5240002 5.809 -1.646 0
-9.4589996 5.7290001 -1.631 0
-9.4189997 5.664 -1.62 0
-9.3669996 5.5929999 -1.607 0
-9.3009996 5.5339999 -1.5930001 0.029999999
-9.2539997 5.467 -1.582 0.029999999
-9.2010002 5.3969998 -1.569 0.039999999
-9.1700001 5.3410001 -1.5599999 0.039999999
-9.125 5.276 -1.549 0.039999999
-9.0939999 5.2199998 -1.54 0.07
-9.0459995 5.1560001 -1.528 0.039999999
-9 5.1100001 -1.518 0.07
-8.9589996 5.0500002 -1.508 0.039999999
-8.9300003 4.9970002 -1.5 0.07
-8.8999996 4.9439998 -1.4910001 0.039999999
-8.8620005 4.8870001 -1.482 0.079999998
-8.8149996 4.8249998 -1.47 0.12
-8.783 4.789 -1.4630001 0.050000001
-8.8079996 4.7670002 -1.465 0
-8.7080002 4.678 -1.444 0.029999999
-8.6960001 4.6370001 -1.4400001 0.13
-8.6549997 4.5799999 -1.4299999 0.22
-8.6309996 4.533 -1.423 0
-8.5889997 4.4770002 -1.413 0
-8.5360003 4.4330001 -1.402 0.059999999
-8.5100002 4.3850002 -1.395 0.039999999
-8.5089998 4.3509998 -1.392 0.14
-8.4490004 4.2870002 -1.3789999 0.22
-8.4200001 4.2389998 -1.372 0.25
-8.4189997 4.2059999 -1.369 0.25999999
-8.4130001 4.1700001 -1.3660001 0.25
-8.4069996 4.1500001 -1.363 0.27000001
-8.3929996 4.1110001 -1.359 0.27000001
-8.3760004 4.0700002 -1.353 0.23999999
-8.3760004 4.0380001 -1.351 0.28999999
-8.382 4.0079999 -1.35 0.31
-8.3990002 3.984 -1.351 0.28
-8.4060001 3.971 -1.351 0.44
-8.4219999 3.9460001 -1.352 0.68000001
-8.4230003 3.915 -1.35 0.79000002
-8.441 3.891 -1.351 0.80000001
-8.448 3.862 -1.35 0.79000002
-8.4630003 3.8369999 -1.35 0.77999997
-8.4899998 3.8169999 -1.353 0.70999998
-8.4980001 3.8039999 -1.353 0.63999999
-8.4969997 3.7720001 -1.351 0.55000001
-8.5229998 3.7509999 -1.353 0.47999999
-8.54 3.727 -1.354 0.51999998
-8.5430002 3.6960001 -1.353 0.44
-8.5640001 3.6730001 -1.354 0.40000001
-8.5839996 3.6500001 -1.3559999 0.43000001
-8.5970001 3.6400001 -1.357 0.38999999
-8.6120005 3.6140001 -1.358 0.43000001
-8.6619997 3.6029999 -1.364 0.27000001
-8.5950003 3.5439999 -1.351 0.99000001
-8.6190004 3.5220001 -1.353 0.99000001
-8.6639996 3.5090001 -1.359 0.99000001
-8.6789999 3.483 -1.36 0.99000001
-8.6899996 3.471 -1.3609999 0.99000001
-8.7049999 3.4460001 -1.3609999 0.99000001
-8.7469997 3.4300001 -1.367 0.99000001
-8.8000002 3.4189999 -1.374 0.95999998
-8.8140001 3.3929999 -1.374 0.99000001
-8.8470001 3.3740001 -1.378 0.99000001
-8.9499998 3.3800001 -1.3940001 0.81999999
-8.9219999 3.3540001 -1.388 0.94999999
-8.934 3.3269999 -1.3890001 0.99000001
-8.9610004 3.3050001 -1.391 0.99000001
-9.0010004 3.2869999 -1.396 0.99000001
-8.8979998 3.2179999 -1.377 0.81999999
-9.007 3.2249999 -1.3940001 0.07
-9.1890001 3.257 -1.423 0.14
-9.2220001 3.253 -1.427 0.18000001
-9.2559996 3.2320001 -1.432 0.14
-9.5699997 3.273 -1.4809999 0.76999998
-9.6289997 3.26 -1.489 0.73000002
-9.5530005 3.201 -1.475 0.47999999
-10.159 -2.8699999 -1.551 0
-10.169 -2.9070001 -1.554 0
-10.109 -2.924 -1.546 0
-10.119 -2.944 -1.548 0
-10.099 -2.973 -1.546 0
-10.104 -3.0090001 -1.549 0
-10.042 -3.0250001 -1.54 0
-9.9510002 -3.0309999 -1.527 0
-9.8470001 -3.0669999 -1.512 0
-9.8950005 -3.099 -1.521 0
-9.8800001 -3.128 -1.52 0
-9.868 -3.1589999 -1.52 0.050000001
-9.8769999 -3.1960001 -1.523 0.14
-9.8479996 -3.221 -1.52 0.039999999
-9.8100004 -3.2420001 -1.515 0
-9.7559996 -3.2409999 -1.507 0.059999999
-9.7440004 -3.2709999 -1.507 0.039999999
-9.7370005 -3.303 -1.507 0.07
-9.7290001 -3.3340001 -1.508 0.079999998
-9.7270002 -3.368 -1.5089999 0.19
-9.6999998 -3.3929999 -1.507 0.2
-9.6850004 -3.4219999 -1.506 0.22
-9.7040005 -3.4460001 -1.51 0.28
-9.6800003 -3.4719999 -1.508 0.25
-9.6639996 -3.5 -1.507 0.28
-9.6359997 -3.5239999 -1.5039999 0.31
-9.6070004 -3.5480001 -1.501 0.28
-9.5819998 -3.573 -1.499 0.28999999
-9.5839996 -3.608 -1.501 0.20999999
-9.6059999 -3.6329999 -1.506 0.23999999
-9.5909996 -3.6619999 -1.505 0.090000004
-9.5790005 -3.6919999 -1.505 0
-9.4890003 -3.691 -1.4910001 0
-9.4490004 -3.71 -1.487 0
-9.4569998 -3.7820001 -1.492 0
-9.4949999 -3.8150001 -1.5 0
-9.474 -3.8410001 -1.498 0
-9.4729996 -3.875 -1.5 0
-9.4680004 -3.908 -1.501 0
-9.4650002 -3.941 -1.503 0
-9.4689999 -3.9779999 -1.506 0
-9.4709997 -4.0139999 -1.508 0
-9.4680004 -4.0300002 -1.5089999 0
-9.6750002 -4.355 -1.5599999 0.039999999
-9.6850004 -4.3959999 -1.564 0
-9.9239998 -4.5430002 -1.608 0.090000004
3.536 -6.6129999 -1.0650001 0.02
3.585 -6.6539998 -1.075 0.12
3.628 -6.6329999 -1.075 0.28
3.6470001 -6.6430001 -1.0779999 0.75999999
3.6470001 -6.5929999 -1.071 0.28
3.6489999 -6.5489998 -1.0650001 0.47999999
3.694 -6.5809999 -1.073 0.28999999
3.717 -6.5739999 -1.074 0.74000001
3.733 -6.5539999 -1.072 0.68000001
3.8099999 -6.6399999 -1.09 0
3.6700001 -6.3740001 -1.0420001 0
3.822 -6.1609998 -1.026 0
3.9319999 -6.0580001 -1.021 0
3.957 -6.0539999 -1.023 0
3.9660001 -6.0479999 -1.023 0
4.1459999 -5.928 -1.023 0
4.2059999 -5.915 -1.027 0
4.3940001 -5.8410001 -1.035 0
4.5739999 -5.9619999 -1.068 0.47
4.5900002 -5.9629998 -1.069 0.2
4.658 -6.0120001 -1.082 0.44
4.665 -5.9819999 -1.079 0.76999998
4.691 -5.9770002 -1.081 0.51999998
4.7160001 -5.9699998 -1.0829999 0.75
4.7579999 -5.9840002 -1.089 0.83999997
4.8379998 -6.0440001 -1.104 0.74000001
4.823 -6.0079999 -1.098 0
4.7090001 -5.829 -1.064 0
4.7069998 -5.789 -1.059 0
10.623 1.8609999 -1.694 0.31
10.61 1.893 -1.692 0.30000001
10.609 1.927 -1.693 0.30000001
9.8179998 2.961 -1.604 0.17
9.8100004 2.9920001 -1.604 0.050000001
9.7910004 3.02 -1.603 0.16
9.7709999 3.0469999 -1.601 0.19
9.7440004 3.073 -1.598 0.039999999
9.7539997 3.0929999 -1.6 0
9.8249998 3.1489999 -1.615 0.059999999
9.9090004 3.21 -1.631 0.039999999
10.027 3.283 -1.654 0.07
-10.1 6.7670002 -1.925 0.23
-9.9519997 6.6440001 -1.893 0
-10.026 6.6479998 -1.903 0
-9.9429998 6.5479999 -1.883 0
-9.9040003 6.4780002 -1.8710001 0
-9.9040003 6.434 -1.867 0.029999999
-9.9379997 6.4109998 -1.869 0.039999999
-9.9709997 6.388 -1.872 0.039999999
-10.018 6.3959999 -1.8789999 0.07
-10.244 6.4959998 -1.92 0.20999999
-10.311 6.493 -1.9299999 0.25999999
-9.1999998 5.355 -1.67 0.029999999
-9.1639996 5.2950001 -1.66 0.029999999
-9.1090002 5.2249999 -1.646 0.029999999
-9.0769997 5.1690001 -1.636 0.029999999
-9.0450001 5.1129999 -1.627 0.07
-9.0030003 5.052 -1.6160001 0.039999999
-8.9589996 5.0089998 -1.6059999 0.07
-8.9060001 4.9419999 -1.592 0.039999999
-8.8699999 4.8850002 -1.5829999 0.12
-8.8129997 4.8179998 -1.569 0.20999999
-8.8100004 4.7810001 -1.5650001 0.1
-8.7069998 4.6890001 -1.543 0.13
-8.6990004 4.6669998 -1.54 0.050000001
-8.658 4.6100001 -1.529 0.14
-8.6169996 4.553 -1.518 0.22
-8.5790005 4.4980001 -1.508 0
-8.5880003 4.4679999 -1.507 0.059999999
-8.5349998 4.4070001 -1.495 0
-8.4960003 4.3530002 -1.485 0.059999999
-8.4630003 4.3189998 -1.477 0.039999999
-8.4540005 4.2810001 -1.473 0.16
-8.4119997 4.2259998 -1.462 0.18000001
-8.408 4.191 -1.459 0.25999999
-8.3959999 4.152 -1.454 0.25
-8.408 4.125 -1.454 0.25
-8.3940001 4.086 -1.449 0.25999999
-8.3699999 4.0580001 -1.443 0.23
-8.3719997 4.026 -1.441 0.28999999
-8.3800001 3.997 -1.4400001 0.34
-8.3889999 3.9690001 -1.4400001 0.30000001
-8.401 3.9430001 -1.4400001 0.40000001
-8.4189997 3.9189999 -1.441 0.38
-8.4379997 3.8959999 -1.442 0.41999999
-8.4370003 3.8789999 -1.441 0.43000001
-8.4420004 3.849 -1.439 0.51999998
-8.467 3.829 -1.442 0.34999999
-8.4680004 3.7969999 -1.4400001 0.51999998
-8.4870005 3.7739999 -1.441 0.36000001
-8.4969997 3.7460001 -1.441 0.46000001
-8.5249996 3.727 -1.444 0.30000001
-8.5290003 3.7130001 -1.443 0.49000001
-8.5459995 3.688 -1.444 0.49000001
-8.5790005 3.671 -1.448 0.050000001
-8.618 3.655 -1.4529999 0.13
-8.6190004 3.6240001 -1.451 0.12
-8.6630001 3.5780001 -1.455 0.54000002
-8.6960001 3.576 -1.46 0.83999997
-8.6999998 3.546 -1.459 0.79000002
-8.7349997 3.5280001 -1.4630001 0.63999999
-8.7419996 3.4990001 -1.4630001 0.63999999
-8.7840004 3.484 -1.4680001 0.41999999
-8.8450003 3.4760001 -1.477 0.41
-8.8940001 3.48 -1.485 0.27000001
-8.9659996 3.4749999 -1.4960001 0.20999999
-9.0080004 3.4590001 -1.502 0.13
-9.0369997 3.438 -1.505 0.18000001
-9.059 3.414 -1.507 0.12
-9.0970001 3.3959999 -1.512 0.16
-9.1370001 3.378 -1.518 0
-9.0760002 3.339 -1.506 0
-9.1400003 3.3299999 -1.515 0.029999999
-9.2019997 3.3199999 -1.525 0.029999999
-9.2589998 3.3080001 -1.533 0.07
-9.3199997 3.2969999 -1.5420001 0.039999999
-9.2969999 3.256 -1.536 0.07
-9.3050003 3.2260001 -1.536 0.079999998
-9.3579998 3.2279999 -1.544 0.039999999
-9.4510002 3.227 -1.559 0
-9.4829998 3.2049999 -1.563 0.090000004
-10.543 -2.944 -1.721 0
-10.521 -2.974 -1.719 0
-10.506 -3.0050001 -1.7180001 0
-10.445 -3.0239999 -1.709 0
-10.017 -2.9690001 -1.637 0
-9.9540005 -2.967 -1.626 0
-9.9069996 -2.987 -1.62 0
-9.875 -3.0120001 -1.6160001 0
-9.8500004 -3.0380001 -1.613 0
-9.8330002 -3.0669999 -1.612 0
-9.8039999 -3.092 -1.608 0
-9.7869997 -3.1199999 -1.607 0
-9.7729998 -3.132 -1.605 0
-9.7609997 -3.1630001 -1.605 0
-9.7360001 -3.188 -1.602 0
-9.7220001 -3.2179999 -1.602 0
-9.7030001 -3.2449999 -1.6 0
-9.6890001 -3.2739999 -1.599 0
-9.6780005 -3.3050001 -1.599 0
-9.6709995 -3.319 -1.599 0
-9.6639996 -3.3510001 -1.6 0
-9.6389999 -3.3759999 -1.597 0.029999999
-9.6389999 -3.4100001 -1.599 0.039999999
-9.6059999 -3.4330001 -1.595 0.14
-9.5959997 -3.4630001 -1.595 0.050000001
-9.5880003 -3.494 -1.596 0.17
-9.5900002 -3.5120001 -1.597 0.11
-9.5629997 -3.536 -1.594 0.2
-9.5570002 -3.5680001 -1.595 0.11
-9.5530005 -3.6010001 -1.596 0.18000001
-9.5290003 -3.6259999 -1.594 0.050000001
-9.5170002 -3.6559999 -1.594 0
-9.4989996 -3.6659999 -1.592 0
-9.4820004 -3.694 -1.591 0
-9.4919996 -3.7320001 -1.595 0
-9.4910002 -3.766 -1.597 0.029999999
-9.4899998 -3.8 -1.599 0.039999999
-9.5100002 -3.8429999 -1.604 0
-9.474 -3.8629999 -1.6 0
-9.4729996 -3.8800001 -1.601 0
-9.4610004 -3.9100001 -1.601 0
-9.4589996 -3.944 -1.603 0
-9.4540005 -3.977 -1.604 0
-9.4490004 -4.0089998 -1.6059999 0
-9.4309998 -4.0370002 -1.605 0
-9.4399996 -4.0760002 -1.609 0
-9.4820004 -4.112 -1.618 0
-9.5089998 -4.1589999 -1.625 0
-9.5270004 -4.2020001 -1.631 0
-9.5860004 -4.2639999 -1.6440001 0.0099999998
-9.677 -4.3400002 -1.663 0.029999999
-9.6680002 -4.3730001 -1.664 0
-9.698 -4.4229999 -1.6720001 0
3.631 -6.6040001 -1.146 0.41
3.6589999 -6.605 -1.148 0.47999999
3.6789999 -6.592 -1.148 0.60000002
3.688 -6.5840001 -1.147 0.69999999
3.6930001 -6.5450001 -1.142 0.41
3.7149999 -6.5349998 -1.142 0.76999998
3.73 -6.5149999 -1.141 0.57999998
3.8269999 -6.6370001 -1.1670001 0.38999999
3.6800001 -6.3319998 -1.11 0.20999999
3.6930001 -6.309 -1.108 0.17
3.6949999 -6.289 -1.105 0.40000001
3.6370001 -6.145 -1.079 0
3.723 -6.2470002 -1.101 0
3.724 -6.2049999 -1.095 0
3.7479999 -6.1999998 -1.097 0
3.76 -6.177 -1.094 0
3.7690001 -6.1690001 -1.094 0
3.7939999 -6.1659999 -1.096 0
3.8069999 -6.1440001 -1.094 0
3.822 -6.125 -1.092 0
3.845 -6.1199999 -1.094 0
3.8729999 -6.1209998 -1.096 0
3.937 -6.1799998 -1.1109999 0
3.931 -6.1490002 -1.1059999 0
3.9489999 -6.1350002 -1.105 0.13
3.9189999 -6.0450001 -1.09 0.27000001
3.9590001 -6.0650001 -1.096 0.18000001
3.977 -6.0510001 -1.096 0.20999999
3.971 -6.0009999 -1.0880001 0
4.0050001 -6.0110002 -1.0930001 0
4.0229998 -6.0180001 -1.096 0.029999999
4.0599999 -6.0320001 -1.101 0.12
4.0549998 -5.9850001 -1.094 0.050000001
4.0840001 -5.987 -1.097 0.11
4.1030002 -5.974 -1.097 0.050000001
4.152 -6.0050001 -1.1059999 0
4.1599998 -5.9970002 -1.1059999 0.059999999
4.164 -5.9619999 -1.101 0.039999999
4.191 -5.961 -1.104 0.07
4.2150002 -5.9549999 -1.105 0.14
4.2309999 -5.9369998 -1.104 0.039999999
4.2550001 -5.9320002 -1.1059999 0
4.2620001 -5.9029999 -1.103 0
4.2659998 -5.888 -1.101 0
4.362 -5.9029999 -1.113 0.15000001
4.3730001 -5.8800001 -1.1109999 0.56
4.4000001 -5.8769999 -1.113 0.2
4.4070001 -5.8670001 -1.112 0.44999999
4.4359999 -5.8670001 -1.115 0.31999999
4.4759998 -5.882 -1.1210001 0.31
4.5879998 -5.9920001 -1.147 0.11
4.6160002 -5.9879999 -1.15 0.15000001
4.6220002 -5.9580002 -1.146 0.20999999
4.6719999 -5.9840002 -1.155 0.22
4.612 -5.8860002 -1.136 0.25
4.652 -5.9000001 -1.142 0.27000001
4.7989998 -6.0479999 -1.177 0
4.71 -5.8969998 -1.147 0
4.6700001 -5.8099999 -1.132 0
4.6919999 -5.7989998 -1.133 0
10.055 3.026 -1.738 0.31999999
10.042 3.056 -1.738 0.31
9.9809999 3.072 -1.728 0.19
9.9569998 3.099 -1.725 0.28999999
9.9309998 3.108 -1.722 0.23
9.9180002 3.138 -1.721 0.18000001
9.9060001 3.168 -1.72 0.25999999
9.9300003 3.21 -1.727 0.23
9.9530001 3.253 -1.733 0.27000001
9.9519997 3.2869999 -1.735 0.30000001
-8.8999996 4.8379998 -1.673 0.079999998
-8.7989998 4.7480001 -1.649 0.12
-8.7220001 4.6890001 -1.632 0.18000001
-8.7379999 4.6620002 -1.632 0.16
-8.6619997 4.5869999 -1.614 0.14
-8.6400003 4.5409999 -1.607 0.18000001
-8.6070004 4.4889998 -1.597 0.1
-8.5559998 4.4289999 -1.585 0.039999999
-8.5469999 4.3899999 -1.58 0.079999998
-8.5240002 4.3610001 -1.574 0.090000004
-8.467 4.2989998 -1.5599999 0.15000001
-8.474 4.2690001 -1.559 0.1
-8.4250002 4.2119999 -1.546 0.20999999
-8.4329996 4.1830001 -1.545 0.23999999
-8.408 4.1370001 -1.538 0.20999999
-8.4180002 4.0929999 -1.536 0.62
-8.415 4.059 -1.533 0.25
-8.4040003 4.0219998 -1.528 0.12
-8.4619999 3.984 -1.535 0.60000002
-8.5959997 4.013 -1.558 0.19
-8.5270004 3.9649999 -1.544 0.17
-8.4689999 3.9059999 -1.53 0.050000001
-8.4709997 3.875 -1.528 0.16
-8.4849997 3.849 -1.528 0.18000001
-8.5179996 3.8 -1.53 0.44999999
-8.5279999 3.7720001 -1.53 0.54000002
-8.5120001 3.7490001 -1.525 0.46000001
-8.4209995 3.678 -1.506 0.34999999
-8.5830002 3.7160001 -1.535 0.1
-8.6120005 3.697 -1.538 0.14
-8.6379995 3.6760001 -1.541 0.16
-8.6590004 3.652 -1.543 0.12
-8.7360001 3.652 -1.5549999 0.27000001
-8.7340002 3.6359999 -1.554 0.19
-8.7770004 3.6210001 -1.5599999 0.25
-8.7679996 3.585 -1.556 0.16
-8.8360004 3.5799999 -1.567 0.25
-8.8540001 3.5550001 -1.568 0.23
-8.8800001 3.533 -1.571 0.19
-8.9189997 3.516 -1.576 0.25999999
-8.9329996 3.506 -1.5779999 0.23
-8.948 3.4790001 -1.579 0.11
-8.9519997 3.448 -1.577 0.079999998
-8.9849997 3.428 -1.581 0.079999998
-8.9820004 3.395 -1.579 0.039999999
-9.0039997 3.3710001 -1.581 0.079999998
-9.033 3.3659999 -1.586 0.039999999
-9.0360003 3.335 -1.584 0.07
-9.073 3.316 -1.589 0.16
-9.1049995 3.2950001 -1.5930001 0.16
-9.1359997 3.2739999 -1.597 0.16
-9.1759996 3.256 -1.603 0.039999999
-9.2550001 3.2509999 -1.6160001 0
-9.2709999 3.24 -1.618 0
-9.3800001 3.2449999 -1.636 0.11
-9.8789997 -4.3140001 -1.788 0.14
-9.7740002 -4.3049998 -1.77 0.16
-9.7480001 -4.3299999 -1.768 0.039999999
-9.7320004 -4.3590002 -1.767 0.07
-9.7200003 -4.3909998 -1.768 0.039999999
-9.717 -4.408 -1.768 0
-9.7889996 -4.4780002 -1.785 0.11
3.6040001 -6.8720002 -1.252 0
3.5190001 -6.6360002 -1.2079999 0
3.654 -6.3049998 -1.168 0
3.6600001 -6.2690001 -1.163 0.029999999
3.681 -6.2610002 -1.164 0.039999999
3.697 -6.243 -1.1619999 0.039999999
3.733 -6.2579999 -1.168 0
3.734 -6.2160001 -1.1619999 0
3.7349999 -6.1950002 -1.159 0
3.7460001 -6.1700001 -1.156 0
3.7639999 -6.1560001 -1.155 0
3.829 -6.0890002 -1.151 0
3.832 -6.073 -1.149 0
3.845 -6.052 -1.147 0
3.8640001 -6.04 -1.147 0.0099999998
3.9630001 -6.0679998 -1.161 0.82999998
3.9419999 -6.0139999 -1.151 0.63999999
4 -6.02 -1.158 0.74000001
4.0710001 -6.0840001 -1.174 0.07
4.0180001 -5.9650002 -1.151 0.15000001
4.053 -5.9770002 -1.156 0.23999999
4.0619998 -5.9499998 -1.153 0.13
4.0560002 -5.921 -1.148 0
4.1030002 -5.9499998 -1.158 0
4.1259999 -5.9419999 -1.159 0
4.1729999 -5.9299998 -1.1619999 0
4.2069998 -5.9380002 -1.166 0
4.23 -5.9310002 -1.168 0
4.2399998 -5.9260001 -1.168 0
4.2680001 -5.9250002 -1.171 0
4.2870002 -5.9120002 -1.171 0
4.3169999 -5.914 -1.174 0
4.3080001 -5.8639998 -1.166 0
4.3260002 -5.849 -1.166 0
4.3460002 -5.8390002 -1.1670001 0
4.3629999 -5.8410001 -1.169 0
4.3930001 -5.8429999 -1.1720001 0
4.395 -5.8080001 -1.1670001 0
4.4099998 -5.7909999 -1.1670001 0
4.4369998 -5.7880001 -1.169 0
4.4710002 -5.7940001 -1.174 0
4.4759998 -5.7820001 -1.173 0
4.4970002 -5.7709999 -1.173 0
4.526 -5.7709999 -1.176 0
4.5380001 -5.7490001 -1.175 0
4.5650001 -5.7459998 -1.177 0
4.6020002 -5.756 -1.183 0
4.6230001 -5.744 -1.183 0
4.6430001 -5.7509999 -1.187 0
4.6700001 -5.7470002 -1.189 0
4.7150002 -5.7659998 -1.197 0
4.7610002 -5.7839999 -1.204 0.0099999998
-8.7200003 4.6869998 -1.705 0.039999999
-8.7060003 4.6440001 -1.699 0
-8.7370005 4.6430001 -1.704 0
-8.6090002 4.54 -1.674 0
-8.5690002 4.4840002 -1.663 0.11
-8.5640001 4.448 -1.659 0
-8.5489998 4.4050002 -1.653 0
-8.5290003 4.3610001 -1.646 0
-8.5010004 4.3130002 -1.637 0
-8.4390001 4.2649999 -1.623 0
-8.46 4.2420001 -1.624 0.059999999
-8.4309998 4.1939998 -1.615 0.039999999
-8.4049997 4.1479998 -1.607 0.15000001
-8.4069996 4.1170001 -1.605 0.19
-8.4060001 4.0830002 -1.602 0.15000001
-8.3920002 4.0440001 -1.597 0.18000001
-8.2840004 3.9749999 -1.573 0.36000001
-8.415 4.006 -1.598 0.1
-8.4189997 3.9749999 -1.596 0.16
-8.4329996 3.95 -1.596 0.12
-8.4490004 3.925 -1.597 0.039999999
-8.4490004 3.8929999 -1.594 0.07
-8.4829998 3.8599999 -1.598 0.14
-8.4820004 3.8280001 -1.595 0.64999998
-8.4980001 3.803 -1.596 0.34999999
-8.5050001 3.7739999 -1.595 0.61000001
-8.4300003 3.7090001 -1.577 0
-8.5340004 3.7219999 -1.596 0
-8.5649996 3.72 -1.601 0
-8.5819998 3.6949999 -1.602 0
-8.6020002 3.6719999 -1.604 0
-8.6210003 3.648 -1.605 0
-8.6359997 3.6229999 -1.6059999 0
-8.665 3.6029999 -1.61 0
-8.6990004 3.585 -1.614 0
-8.6899996 3.5650001 -1.6109999 0
-8.7030001 3.539 -1.6109999 0
-8.7320004 3.5190001 -1.615 0
-8.7449999 3.4920001 -1.615 0
-8.7700005 3.471 -1.618 0
-8.7919998 3.447 -1.6210001 0
-8.816 3.425 -1.623 0
-8.8339996 3.4159999 -1.626 0
-8.8870001 3.404 -1.6339999 0
-8.9449997 3.362 -1.641 0
-8.9960003 3.3499999 -1.649 0
-9.0970001 3.355 -1.6670001 0
-10.044 -4.3070002 -1.895 0.11
-10 -4.3249998 -1.8890001 0.18000001
-9.9820004 -4.336 -1.887 0.20999999
-9.9580002 -4.3629999 -1.8839999 0.1
-9.8739996 -4.3629999 -1.87 0.16
-9.8439999 -4.3870001 -1.867 0.16
-9.8299999 -4.4180002 -1.867 0.16
-9.802 -4.4419999 -1.864 0.16
-9.7790003 -4.4689999 -1.862 0.18000001
-9.7910004 -4.493 -1.8660001 0.18000001
3.5739999 -6.8150001 -1.2970001 0
3.484 -6.5159998 -1.2410001 0
3.4849999 -6.4679999 -1.233 0
3.4990001 -6.4450002 -1.2309999 0
3.51 -6.4169998 -1.227 0
3.527 -6.401 -1.226 0
3.529 -6.3569999 -1.219 0
3.553 -6.3520002 -1.22 0
3.546 -6.3179998 -1.214 0
3.562 -6.2979999 -1.212 0
3.575 -6.276 -1.21 0
3.5929999 -6.2620001 -1.209 0
3.6070001 -6.2399998 -1.207 0
3.6289999 -6.2319999 -1.2079999 0
3.628 -6.21 -1.204 0
3.655 -6.21 -1.207 0
3.674 -6.198 -1.207 0
3.687 -6.1750002 -1.204 0
3.704 -6.1599998 -1.204 0
3.7290001 -6.1570001 -1.205 0
3.7509999 -6.1500001 -1.207 0
3.7550001 -6.1339998 -1.204 0
3.783 -6.1370001 -1.2079999 0
3.7880001 -6.1020002 -1.2029999 0
3.8099999 -6.0949998 -1.204 0
3.8299999 -6.085 -1.204 0
3.845 -6.066 -1.2029999 0
3.8610001 -6.0489998 -1.201 0
3.8759999 -6.0510001 -1.2029999 0
3.885 -6.0240002 -1.2 0
3.9070001 -6.0170002 -1.201 0
3.9319999 -6.013 -1.2029999 0
3.9590001 -6.0139999 -1.206 0
3.967 -5.9850001 -1.202 0.039999999
3.9790001 -5.9619999 -1.2 0
3.9749999 -5.9349999 -1.1950001 0
4.0019999 -5.9349999 -1.198 0
4.0240002 -5.928 -1.199 0
4.0370002 -5.9070001 -1.197 0
4.0599999 -5.901 -1.199 0
4.0840001 -5.8959999 -1.201 0
4.0819998 -5.8730001 -1.197 0
4.1079998 -5.8720002 -1.2 0
4.1209998 -5.8509998 -1.198 0
4.1409998 -5.8390002 -1.198 0
4.1599998 -5.8280001 -1.199 0
4.1880002 -5.8280001 -1.201 0
4.198 -5.803 -1.199 0
4.2090001 -5.8000002 -1.2 0
4.2360001 -5.7979999 -1.202 0
4.257 -5.789 -1.2029999 0
4.2729998 -5.7729998 -1.2029999 0
4.2940001 -5.7620001 -1.2029999 0
4.3150001 -5.7540002 -1.204 0
4.3280001 -5.7519999 -1.205 0
4.3499999 -5.744 -1.207 0
4.3759999 -5.7399998 -1.209 0
4.3899999 -5.7210002 -1.2079999 0
4.428 -5.7340002 -1.214 0
4.4460001 -5.7199998 -1.214 0
4.474 -5.7189999 -1.217 0
4.4819999 -5.71 -1.217 0
4.52 -5.7220001 -1.223 0
4.5440001 -5.7160001 -1.225 0
4.573 -5.7150002 -1.228 0
4.5970001 -5.7090001 -1.23 0
4.6389999 -5.723 -1.237 0
4.664 -5.7179999 -1.239 0
-8.8739996 4.7740002 -1.826 0
-8.6829996 4.6370001 -1.781 0
-8.6680002 4.5939999 -1.775 0
-8.6490002 4.5489998 -1.768 0.11
-8.5970001 4.5050001 -1.755 0.19
-8.592 4.4679999 -1.75 0
-8.5780001 4.427 -1.744 0
-8.4729996 4.3390002 -1.719 0
-8.4650002 4.302 -1.714 0
-8.4840002 4.2779999 -1.715 0
-8.4849997 4.2449999 -1.712 0
-8.4350004 4.138 -1.6950001 0
-8.4160004 4.0960002 -1.688 0
-8.4040003 4.0580001 -1.682 0.029999999
-8.4209995 4.033 -1.683 0.07
-8.4280005 4.0040002 -1.682 0.12
-8.4180002 3.983 -1.679 0.23
-8.4130001 3.948 -1.675 0.22
-8.4320002 3.925 -1.676 0.25
-8.4390001 3.8959999 -1.675 0.28999999
-8.4499998 3.869 -1.675 0.2
-8.4650002 3.8440001 -1.676 0.23999999
-8.4720001 3.8150001 -1.674 0
-8.4779997 3.802 -1.674 0
-8.5129995 3.7850001 -1.679 0
-8.5570002 3.773 -1.686 0
-8.6020002 3.76 -1.693 0
-8.8909998 3.803 -1.748 0
-9.1780005 3.8559999 -1.803 0
3.529 -6.7870002 -1.357 0
3.4760001 -6.415 -1.288 0
3.4879999 -6.3889999 -1.285 0
3.494 -6.3759999 -1.283 0
3.5009999 -6.3410001 -1.278 0
3.526 -6.3390002 -1.28 0
3.53 -6.3000002 -1.274 0
3.5369999 -6.2670002 -1.2690001 0
3.569 -6.276 -1.273 0
3.576 -6.2670002 -1.273 0
3.5769999 -6.224 -1.265 0
3.598 -6.2140002 -1.266 0
3.619 -6.2059999 -1.267 0
3.635 -6.1880002 -1.265 0
3.648 -6.1659999 -1.263 0
3.6730001 -6.1630001 -1.265 0
3.668 -6.1339998 -1.2589999 0
3.6800001 -6.1110001 -1.257 0
3.7030001 -6.1040001 -1.258 0
3.72 -6.0890002 -1.257 0
3.7490001 -6.0939999 -1.261 0
3.76 -6.0689998 -1.258 0
3.7820001 -6.0619998 -1.2589999 0
3.8 -6.0689998 -1.262 0
3.809 -6.0409999 -1.258 0
3.8329999 -6.0370002 -1.26 0
3.8469999 -6.0190001 -1.2589999 0
3.8729999 -6.0159998 -1.261 0
3.8770001 -5.9809999 -1.256 0
3.891 -5.9829998 -1.257 0
3.9200001 -5.9860001 -1.261 0
3.9360001 -5.9699998 -1.26 0
3.9560001 -5.9590001 -1.26 0
3.9879999 -5.9660001 -1.265 0
4.0089998 -5.9569998 -1.266 0
4.026 -5.941 -1.265 0
4.039 -5.941 -1.267 0
4.0489998 -5.9159999 -1.263 0
4.0739999 -5.9130001 -1.266 0
4.1040001 -5.9159999 -1.27 0
4.1110001 -5.8870001 -1.266 0
4.1469998 -5.8979998 -1.271 0
4.1669998 -5.8870001 -1.272 0
4.178 -5.8829999 -1.273 0
4.1999998 -5.875 -1.274 0
4.2249999 -5.8709998 -1.276 0
4.2449999 -5.8590002 -1.276 0
4.2709999 -5.8569999 -1.279 0
4.2880001 -5.8410001 -1.278 0
4.3200002 -5.8460002 -1.283 0
4.3340001 -5.8449998 -1.284 0
4.362 -5.8439999 -1.2869999 0
4.3790002 -5.829 -1.2869999 0
4.401 -5.8200002 -1.288 0
4.4239998 -5.8119998 -1.29 0
4.4619999 -5.8249998 -1.296 0
4.4629998 -5.8070002 -1.294 0
4.48 -5.7909999 -1.293 0
4.6700001 -5.882 -1.33 0.16
4.684 -5.8610001 -1.3279999 0.13
4.6989999 -5.8610001 -1.33 0
4.6859999 -5.8080001 -1.321 0
-8.6160002 4.5960002 -1.88 0.07
-8.5979996 4.552 -1.873 0
-8.5550003 4.494 -1.86 0
-8.552 4.4580002 -1.8559999 0
-8.4980001 4.3959999 -1.84 0.02
-8.5080004 4.368 -1.839 0.13
