# .PCD v0.7 - Point Cloud Data file format
VERSION 0.7
FIELDS x y z intensity
SIZE 4 4 4 4
TYPE F F F F
COUNT 1 1 1 1
WIDTH 1414
HEIGHT 1
VIEWPOINT 0 0 0 1 0 0 0
POINTS 1414
DATA ascii
0.82099998 -12.97 -1.7 0.31999999
0.86199999 -12.969 -1.7 0.31
0.903 -12.968 -1.701 0.31999999
0.92199999 -12.949 -1.698 0.27000001
0.96499997 -12.974 -1.702 0.38999999
1.005 -12.967 -1.702 0.25
1.0470001 -12.975 -1.7029999 0.41
1.0880001 -12.974 -1.704 0.25
1.1289999 -12.976 -1.704 0.25999999
1.174 -13.022 -1.712 0.28
1.2 -13.075 -1.72 0.27000001
1.249 -13.154 -1.732 0.27000001
1.298 -13.221 -1.742 0.23999999
1.344 -13.268 -1.75 0.19
1.395 -13.348 -1.762 0.16
1.442 -13.385 -1.768 0.57999998
1.494 -13.475 -1.7819999 0.43000001
1.524 -13.551 -1.794 0.40000001
1.571 -13.58 -1.799 0.34999999
1.614 -13.577 -1.799 0.36000001
1.656 -13.572 -1.799 0.34
8.1780005 -9.941 -1.682 0.16
8.1619997 -9.8900003 -1.675 0.33000001
8.1829996 -9.8529997 -1.673 0.33000001
8.2040005 -9.8149996 -1.67 0.31999999
8.2229996 -9.7749996 -1.668 0.34
8.2510004 -9.7460003 -1.6670001 0.36000001
12.031 1.4 -1.658 0.40000001
12.036 1.439 -1.66 0.36000001
12.035 1.478 -1.66 0.34999999
12.043 1.498 -1.6619999 0.34999999
12.05 1.5369999 -1.663 0.36000001
12.049 1.575 -1.664 0.31999999
12.052 1.614 -1.665 0.33000001
12.054 1.653 -1.666 0.34
12.069 1.694 -1.67 0.31999999
12.067 1.732 -1.67 0.38
12.08 1.753 -1.673 0.23999999
12.012 1.7819999 -1.663 0.55000001
12.065 1.829 -1.6720001 0.13
-5.6069999 12.13 -1.85 0.27000001
-5.638 12.096 -1.847 0.47999999
-5.6719999 12.12 -1.852 0.37
-5.7199998 12.123 -1.8559999 0.34
-5.77 12.13 -1.86 0.38999999
-5.8189998 12.135 -1.864 0.31
-5.8649998 12.135 -1.867 0.34
-5.908 12.125 -1.869 0.38
-5.9289999 12.121 -1.87 0.33000001
-5.974 12.115 -1.872 0.36000001
-6.0120001 12.096 -1.872 0.34
-6.0549998 12.088 -1.874 0.33000001
-6.1020002 12.086 -1.877 0.30000001
-6.145 12.078 -1.8789999 0.41
-6.1880002 12.069 -1.88 0.34
-6.2179999 12.08 -1.8839999 0.34
-6.2639999 12.077 -1.887 0.38999999
-6.3049998 12.062 -1.888 0.30000001
-6.355 12.065 -1.892 0.37
-6.3959999 12.052 -1.893 0.31999999
-6.4390001 12.04 -1.8940001 0.36000001
-6.4860001 12.038 -1.897 0.34999999
-6.5040002 12.026 -1.897 0.34
-6.5479999 12.017 -1.899 0.31999999
-6.5960002 12.016 -1.902 0.31999999
-6.638 12.002 -1.904 0.31999999
-6.684 11.997 -1.906 0.36000001
-6.7319999 11.995 -1.91 0.31
-6.776 11.984 -1.9119999 0.38
-6.7950001 11.973 -1.9119999 0.30000001
-6.8429999 11.97 -1.915 0.38
-6.8779998 11.944 -1.914 0.30000001
-6.9200001 11.931 -1.915 0.31999999
-6.973 11.936 -1.92 0.30000001
-7.0029998 11.901 -1.918 0.38999999
-7.039 11.877 -1.918 0.34
-7.0609999 11.871 -1.919 0.30000001
-7.0970001 11.847 -1.918 0.37
-7.1399999 11.835 -1.92 0.34
-7.1900001 11.833 -1.924 0.33000001
-7.2389998 11.83 -1.927 0.40000001
-7.3169999 11.873 -1.939 0.33000001
-7.3499999 11.885 -1.943 0.30000001
-7.3889999 11.865 -1.944 0.16
-7.4720001 11.914 -1.957 0.44
-7.5939999 12.026 -1.982 0.43000001
-7.6469998 12.026 -1.9859999 0.36000001
-13.173 -2.5050001 -1.857 0.34999999
-13.182 -2.55 -1.859 0.33000001
-13.159 -2.5880001 -1.857 0.38999999
-13.17 -2.6329999 -1.86 0.36000001
-13.187 -2.6800001 -1.864 0.40000001
-13.167 -2.697 -1.862 0.31
-13.17 -2.7409999 -1.863 0.33000001
-13.173 -2.7850001 -1.865 0.37
-13.156 -2.825 -1.864 0.31
-13.155 -2.868 -1.865 0.31999999
-13.162 -2.9119999 -1.868 0.38
-13.15 -2.9530001 -1.867 0.30000001
-13.154 -2.9760001 -1.869 0.36000001
-13.154 -3.0190001 -1.87 0.27000001
-13.15 -3.062 -1.8710001 0.44999999
-13.116 -3.2279999 -1.872 0.30000001
-13.136 -3.2550001 -1.876 0.38
-13.122 -3.2950001 -1.875 0.34999999
-13.113 -3.3369999 -1.876 0.34
-13.12 -3.382 -1.878 0.30000001
-13.108 -3.4230001 -1.878 0.34999999
-13.101 -3.4649999 -1.8789999 0.28999999
-13.116 -3.4909999 -1.882 0.36000001
-12.933 -3.487 -1.855 0
-9.3299999 -9.9230003 -1.8890001 0.34999999
-9.2779999 -9.9309998 -1.885 0.31999999
-9.2360001 -9.948 -1.882 0.40000001
-9.1899996 -9.9610004 -1.8789999 0.30000001
-8.9910002 -9.8079996 -1.841 0.18000001
-8.073 -9.1219997 -1.669 0.13
-8.8529997 -10.063 -1.8559999 0.30000001
-8.835 -10.073 -1.855 0.34
-8.8030005 -10.101 -1.855 0.33000001
-8.7709999 -10.129 -1.855 0.38999999
-8.7360001 -10.152 -1.854 0.34
-5.289 -11.506 -1.743 0.46000001
-5.277 -11.527 -1.745 0.27000001
-5.1750002 -11.401 -1.721 0.44
-5.2069998 -11.567 -1.7460001 0.36000001
-5.1370001 -11.508 -1.733 0.28999999
-5.059 -11.43 -1.717 0.25
-5.0089998 -11.415 -1.712 0.34
-4.9460001 -11.367 -1.702 0.25999999
-4.9050002 -11.322 -1.693 0.47999999
-4.862 -11.32 -1.6900001 0.36000001
-3.7079999 -11.837 -1.7029999 0.36000001
-3.671 -11.851 -1.7029999 0.34
-3.6300001 -11.847 -1.701 0.30000001
-3.589 -11.849 -1.699 0.33000001
-3.573 -11.86 -1.7 0.38
-3.5309999 -11.856 -1.698 0.28
-3.487 -11.845 -1.694 0.31
-3.4549999 -11.875 -1.697 0.44999999
-3.4130001 -11.868 -1.694 0.31
-3.372 -11.866 -1.692 0.33000001
-3.335 -11.878 -1.693 0.36000001
-3.3210001 -11.898 -1.6950001 0.38
-3.2679999 -11.854 -1.686 0.30000001
-2.099 -11.999 -1.669 0.44
-2.0539999 -11.967 -1.663 0.31999999
-2.0209999 -11.998 -1.666 0.30000001
-1.973 -11.946 -1.6569999 0.25
-1.929 -11.907 -1.65 0.38999999
-1.89 -11.907 -1.65 0.38999999
-1.841 -11.959 -1.656 0.25999999
-1.806 -11.981 -1.659 0.61000001
-1.776 -12.037 -1.666 0.38999999
-1.738 -12.043 -1.666 0.31
-1.7029999 -12.069 -1.67 0.36000001
-1.687 -12.092 -1.673 0.34
-1.647 -12.083 -1.671 0.31
-1.6109999 -12.102 -1.673 0.36000001
-1.571 -12.091 -1.67 0.34
-1.534 -12.11 -1.673 0.34999999
-1.497 -12.119 -1.673 0.31999999
-1.4579999 -12.117 -1.6720001 0.34999999
-1.439 -12.12 -1.6720001 0.30000001
-1.402 -12.134 -1.674 0.36000001
-1.363 -12.128 -1.6720001 0.28999999
-1.326 -12.143 -1.674 0.36000001
-1.29 -12.164 -1.676 0.30000001
-1.251 -12.168 -1.676 0.38
-1.2130001 -12.168 -1.676 0.33000001
-1.1950001 -12.182 -1.678 0.33000001
-1.1569999 -12.186 -1.678 0.33000001
-1.118 -12.185 -1.677 0.28
-1.08 -12.197 -1.678 0.36000001
-1.0420001 -12.198 -1.678 0.34
-1.0039999 -12.203 -1.678 0.31999999
-0.96600002 -12.212 -1.679 0.30000001
-0.94599998 -12.202 -1.677 0.31999999
-0.90799999 -12.213 -1.679 0.31
-0.87099999 -12.231 -1.681 0.34
-0.83099997 -12.214 -1.678 0.31999999
-0.79299998 -12.229 -1.6799999 0.38
-0.75599998 -12.241 -1.681 0.33000001
-0.736 -12.236 -1.6799999 0.34
-0.699 -12.256 -1.683 0.34999999
-0.66000003 -12.262 -1.684 0.34
-0.62199998 -12.276 -1.686 0.33000001
-0.583 -12.27 -1.684 0.28999999
-0.54500002 -12.284 -1.686 0.34999999
-0.50700003 -12.283 -1.686 0.27000001
-0.48800001 -12.296 -1.688 0.34999999
-0.449 -12.295 -1.687 0.34
-0.41100001 -12.303 -1.688 0.31999999
-0.37200001 -12.308 -1.689 0.34
-0.33399999 -12.319 -1.6900001 0.28999999
-0.296 -12.336 -1.693 0.36000001
-0.257 -12.335 -1.693 0.33000001
-0.23800001 -12.349 -1.6950001 0.34
-0.199 -12.353 -1.6950001 0.31999999
-0.16 -12.362 -1.696 0.33000001
-0.122 -12.374 -1.698 0.27000001
-0.082999997 -12.375 -1.698 0.36000001
-0.044 -12.379 -1.699 0.34999999
-0.024 -12.375 -1.698 0.28
0.014 -12.383 -1.7 0.37
0.052999999 -12.406 -1.7029999 0.34
0.092 -12.402 -1.7029999 0.33000001
0.131 -12.406 -1.7029999 0.31
0.17 -12.413 -1.704 0.31
0.20999999 -12.424 -1.706 0.31999999
0.229 -12.422 -1.706 0.31999999
0.26800001 -12.431 -1.707 0.31999999
0.30700001 -12.432 -1.7079999 0.33000001
0.34599999 -12.419 -1.706 0.31
0.38499999 -12.416 -1.706 0.34999999
0.42399999 -12.415 -1.706 0.31999999
0.44400001 -12.422 -1.707 0.34
0.48300001 -12.415 -1.706 0.28999999
0.52200001 -12.413 -1.706 0.36000001
0.56099999 -12.416 -1.706 0.34999999
0.60000002 -12.41 -1.706 0.30000001
0.639 -12.418 -1.707 0.38
0.68000001 -12.447 -1.712 0.38999999
0.699 -12.432 -1.71 0.18000001
0.73900002 -12.458 -1.714 0.44999999
0.778 -12.451 -1.714 0.23
0.81900001 -12.478 -1.7180001 0.28
0.861 -12.521 -1.725 0.27000001
0.90499997 -12.58 -1.735 0.30000001
0.94800001 -12.632 -1.743 0.31
0.97399998 -12.703 -1.7539999 0.28999999
1.0190001 -12.771 -1.765 0.31999999
1.063 -12.819 -1.773 0.25
1.109 -12.881 -1.783 0.20999999
1.156 -12.95 -1.794 0.31999999
1.199 -12.976 -1.799 0.46000001
1.225 -13.031 -1.808 0.38
1.266 -13.031 -1.808 0.31999999
7.829 -9.4709997 -1.6849999 0.27000001
7.855 -9.4420004 -1.684 0.36000001
7.8579998 -9.4160004 -1.681 0.30000001
7.8649998 -9.3640003 -1.676 0.34999999
7.8870001 -9.3299999 -1.674 0.34
7.9169998 -9.3070002 -1.674 0.34
7.927 -9.2589998 -1.67 0.34
7.9450002 -9.2209997 -1.6670001 0.34999999
7.9530001 -9.2010002 -1.666 0.36000001
11.105 0.82700002 -1.643 0.31999999
11.13 0.86400002 -1.647 0.36000001
11.119 0.89899999 -1.646 0.28999999
11.12 0.93400002 -1.647 0.30000001
11.121 0.96899998 -1.647 0.31
11.137 0.98799998 -1.65 0.33000001
11.134 1.023 -1.65 0.28999999
11.148 1.0599999 -1.653 0.34
11.157 1.096 -1.655 0.31999999
11.153 1.131 -1.655 0.28999999
11.159 1.1670001 -1.6569999 0.36000001
11.169 1.204 -1.659 0.30000001
11.183 1.223 -1.661 0.30000001
11.181 1.258 -1.6619999 0.30000001
11.191 1.295 -1.664 0.30000001
11.201 1.332 -1.666 0.30000001
11.212 1.369 -1.668 0.30000001
11.214 1.405 -1.669 0.31
11.219 1.424 -1.671 0.31999999
11.199 1.457 -1.668 0.28999999
11.218 1.495 -1.6720001 0.34
11.213 1.53 -1.6720001 0.30000001
11.214 1.567 -1.673 0.30000001
11.223 1.604 -1.675 0.33000001
11.228 1.64 -1.677 0.33000001
11.223 1.658 -1.676 0.28999999
11.222 1.694 -1.677 0.34
11.22 1.729 -1.678 0.30000001
11.23 1.767 -1.6799999 0.36000001
10.963 1.76 -1.638 0.23
10.669 1.7460001 -1.592 0.1
10.652 1.778 -1.59 0.15000001
10.791 1.994 -1.617 0.1
10.852 2.023 -1.628 0.17
11.146 2.115 -1.676 0.27000001
11.211 2.164 -1.688 0.31999999
11.202 2.198 -1.688 0.28
11.207 2.2360001 -1.689 0.33000001
11.19 2.2690001 -1.688 0.31
11.175 2.303 -1.687 0.30000001
11.183 2.323 -1.689 0.23
11.168 2.3559999 -1.687 0.16
11.161 2.391 -1.687 0
11.018 2.4330001 -1.6670001 0.22
-5.0209999 11.145 -1.816 0.34999999
-5.0700002 11.16 -1.821 0.34
-5.1129999 11.162 -1.824 0.31999999
-5.1589999 11.169 -1.8279999 0.30000001
-5.1960001 11.156 -1.829 0.28999999
-5.2160001 11.153 -1.83 0.30000001
-5.2610002 11.158 -1.834 0.31
-5.296 11.142 -1.834 0.30000001
-5.3390002 11.141 -1.837 0.30000001
-5.3779998 11.133 -1.8380001 0.31999999
-5.4159999 11.123 -1.839 0.28999999
-5.454 11.111 -1.84 0.28999999
-5.4790001 11.119 -1.8430001 0.30000001
-5.5250001 11.123 -1.847 0.30000001
-5.559 11.104 -1.847 0.28999999
-5.6040001 11.107 -1.85 0.31
-5.6490002 11.109 -1.854 0.30000001
-5.6890001 11.102 -1.8559999 0.30000001
-5.7290001 11.092 -1.857 0.28999999
-5.7579999 11.106 -1.8609999 0.30000001
-5.79 11.083 -1.86 0.31
-5.8319998 11.079 -1.863 0.28999999
-5.8670001 11.06 -1.863 0.31
-5.902 11.042 -1.863 0.31
-5.9439998 11.037 -1.865 0.30000001
-5.9770002 11.015 -1.865 0.28
-6.0029998 11.021 -1.868 0.31999999
-6.0440001 11.014 -1.87 0.28999999
-6.0900002 11.016 -1.874 0.30000001
-6.1269999 11.002 -1.875 0.30000001
-6.1680002 10.993 -1.876 0.30000001
-6.211 10.989 -1.8789999 0.28999999
-6.23 10.983 -1.88 0.31
-6.2729998 10.977 -1.882 0.30000001
-6.3000002 10.945 -1.88 0.27000001
-6.3429999 10.939 -1.883 0.28999999
-6.3639998 10.897 -1.8789999 0.30000001
-6.4060001 10.89 -1.881 0.28999999
-6.4450002 10.878 -1.883 0.31999999
-6.4640002 10.872 -1.883 0.31
-6.5019999 10.856 -1.8839999 0.31
-6.5310001 10.828 -1.883 0.20999999
-6.5879998 10.846 -1.89 0.33000001
-6.6719999 10.906 -1.905 0.28
-6.7210002 10.908 -1.909 0.25
-6.7550001 10.887 -1.909 0.23999999
-6.7859998 10.898 -1.913 0.16
-6.8779998 10.969 -1.931 0.44999999
-6.9699998 11.039 -1.948 0.33000001
-11.349 3.7780001 -1.774 0.28
-11.338 3.7349999 -1.77 0.28999999
-11.333 3.6930001 -1.768 0.28999999
-11.344 3.658 -1.768 0.28999999
-11.335 3.6159999 -1.7640001 0.30000001
-11.333 3.576 -1.762 0.28999999
-11.339 3.5380001 -1.761 0.28999999
-11.325 3.5150001 -1.758 0.28999999
-11.342 3.4809999 -1.7589999 0.33000001
-11.357 3.4460001 -1.7589999 0.30000001
-11.358 3.408 -1.758 0.28999999
-11.355 3.368 -1.756 0.30000001
-11.357 3.3299999 -1.7539999 0.30000001
-11.359 3.2920001 -1.753 0.30000001
-11.366 3.2750001 -1.753 0.30000001
-11.348 3.2309999 -1.748 0.28
-11.352 3.194 -1.748 0.31999999
-11.364 3.1589999 -1.748 0.31
-11.361 3.119 -1.7460001 0.28999999
-11.359 3.0799999 -1.744 0.31999999
-11.352 3.04 -1.7410001 0.28999999
-11.349 3.02 -1.74 0.31
-12.165 -1.799 -1.8279999 0.36000001
-12.169 -1.839 -1.829 0.33000001
-12.169 -1.878 -1.83 0.37
-12.18 -1.919 -1.8329999 0.31999999
-12.196 -1.961 -1.836 0.31
-12.221 -2.0039999 -1.841 0.36000001
-12.225 -2.0250001 -1.8430001 0.31999999
-12.234 -2.066 -1.845 0.31
-12.214 -2.102 -1.8430001 0.31
-12.225 -2.1429999 -1.846 0.30000001
-12.216 -2.181 -1.845 0.31
-12.205 -2.2190001 -1.845 0.30000001
-12.216 -2.2609999 -1.848 0.31999999
-12.203 -2.2780001 -1.846 0.31
-12.203 -2.3180001 -1.847 0.28999999
-12.202 -2.3570001 -1.848 0.28
-12.198 -2.3959999 -1.849 0.28999999
-12.202 -2.437 -1.851 0.30000001
-12.183 -2.473 -1.849 0.28999999
-12.175 -2.5109999 -1.849 0.28999999
-12.184 -2.533 -1.851 0.28999999
-12.176 -2.5710001 -1.851 0.31999999
-12.157 -2.6070001 -1.849 0.31
-12.162 -2.648 -1.851 0.31999999
-12.148 -2.6849999 -1.85 0.30000001
-12.145 -2.7249999 -1.851 0.31
-12.145 -2.7449999 -1.852 0.28999999
-12.124 -2.78 -1.85 0.30000001
-12.118 -2.819 -1.85 0.30000001
-12.105 -2.8559999 -1.85 0.31
-12.075 -2.9890001 -1.85 0.28999999
-12.059 -3.026 -1.849 0.28999999
-12.054 -3.0639999 -1.85 0.28999999
-12.044 -3.102 -1.85 0.28999999
-12.038 -3.141 -1.85 0.28999999
-12.034 -3.1800001 -1.851 0.28999999
-12.001 -3.2119999 -1.848 0.28999999
-12.011 -3.2349999 -1.85 0.25999999
-11.883 -3.24 -1.831 0
-11.977 -3.3069999 -1.848 0
-8.1110001 -8.7309999 -1.767 0.039999999
-8.0439997 -8.7130003 -1.758 0.079999998
-7.9619999 -8.6789999 -1.745 0.039999999
-7.9120002 -8.6789999 -1.74 0.14
-7.842 -8.6300001 -1.726 0.20999999
-7.7649999 -8.5979996 -1.715 0.17
-7.7800002 -8.6700001 -1.725 0.25
-7.7519999 -8.6929998 -1.724 0.22
-7.737 -8.7320004 -1.727 0.23
-7.7480001 -8.7989998 -1.737 0.22
-7.7140002 -8.7889996 -1.732 0.27000001
-7.6700001 -8.7939997 -1.728 0.2
-7.6609998 -8.8400002 -1.732 0.23999999
-7.645 -8.8780003 -1.735 0.2
-7.619 -8.9029999 -1.7359999 0.22
-7.5819998 -8.9169998 -1.733 0.19
-7.1869998 -8.5050001 -1.643 0.23999999
-5.3730001 -10.086 -1.689 0.44
-5.3049998 -10.033 -1.677 0.28999999
-5.1389999 -9.9049997 -1.647 0.31
-4.8260002 -10.145 -1.659 0.43000001
-4.7779999 -10.209 -1.665 0.41
-4.7719998 -10.453 -1.699 0.40000001
-4.882 -10.742 -1.748 0.31
-4.8369999 -10.732 -1.744 0.25
-4.803 -10.745 -1.744 0.41
-4.77 -10.762 -1.744 0.30000001
-4.7340002 -10.773 -1.743 0.30000001
-4.6919999 -10.77 -1.74 0.28999999
-4.6550002 -10.777 -1.739 0.36000001
-4.6420002 -10.792 -1.74 0.31999999
-4.592 -10.768 -1.734 0.18000001
-3.589 -10.288 -1.605 0.40000001
-3.7550001 -10.877 -1.702 0.31
-3.7420001 -10.894 -1.704 0.36000001
-3.5369999 -10.4 -1.619 0.31
-3.5350001 -10.505 -1.635 0.22
-3.6229999 -10.882 -1.696 0.34
-3.576 -10.852 -1.689 0.28
-3.5350001 -10.844 -1.686 0.20999999
-3.263 -10.11 -1.562 0.46000001
-3.5 -10.91 -1.694 0.30000001
-3.464 -10.915 -1.693 0.30000001
-3.431 -10.932 -1.694 0.28999999
-3.392 -10.925 -1.691 0.28999999
-3.3570001 -10.936 -1.691 0.30000001
-3.3210001 -10.939 -1.6900001 0.28999999
-3.286 -10.947 -1.6900001 0.27000001
-3.2650001 -10.941 -1.688 0.34999999
-3.2320001 -10.957 -1.689 0.31999999
-3.1949999 -10.956 -1.687 0.30000001
-3.1600001 -10.966 -1.687 0.31
-3.1240001 -10.97 -1.686 0.33000001
-3.0880001 -10.972 -1.6849999 0.28999999
-3.0550001 -10.987 -1.686 0.30000001
-3.0339999 -10.981 -1.684 0.33000001
-2.9979999 -10.984 -1.683 0.34
-2.9630001 -10.99 -1.682 0.30000001
-2.9330001 -11.018 -1.6849999 0.38999999
-2.8959999 -11.018 -1.684 0.34999999
-2.3199999 -10.97 -1.655 0.30000001
-2.2950001 -11.027 -1.663 0.40000001
-2.27 -11.079 -1.671 0.31999999
-2.2390001 -11.108 -1.674 0.34999999
-2.2060001 -11.122 -1.675 0.31
-2.171 -11.129 -1.675 0.33000001
-2.154 -11.134 -1.676 0.31999999
-2.118 -11.139 -1.675 0.28999999
-2.0840001 -11.148 -1.676 0.34
-2.0480001 -11.15 -1.675 0.31999999
-2.013 -11.157 -1.675 0.33000001
-1.979 -11.169 -1.676 0.31
-1.962 -11.176 -1.677 0.31
-1.926 -11.174 -1.675 0.28
-1.89 -11.176 -1.675 0.30000001
-1.857 -11.198 -1.677 0.36000001
-1.8200001 -11.192 -1.675 0.31999999
-1.785 -11.197 -1.675 0.31999999
-1.751 -11.209 -1.676 0.30000001
-1.733 -11.212 -1.676 0.31999999
-1.697 -11.211 -1.675 0.31
-1.665 -11.24 -1.679 0.31999999
-1.6289999 -11.239 -1.678 0.30000001
-1.5930001 -11.238 -1.677 0.31
-1.557 -11.237 -1.676 0.28999999
-1.524 -11.26 -1.679 0.30000001
-1.5039999 -11.249 -1.677 0.30000001
-1.47 -11.261 -1.678 0.31999999
-1.436 -11.275 -1.6799999 0.28999999
-1.397 -11.252 -1.675 0.28999999
-1.364 -11.274 -1.678 0.33000001
-1.33 -11.288 -1.6799999 0.28999999
-1.293 -11.281 -1.678 0.28999999
-1.276 -11.289 -1.679 0.31999999
-1.24 -11.291 -1.678 0.30000001
-1.205 -11.3 -1.679 0.28999999
-1.168 -11.29 -1.677 0.28999999
-1.1339999 -11.308 -1.679 0.28999999
-1.097 -11.3 -1.678 0.27000001
-1.08 -11.307 -1.678 0.34
-1.046 -11.328 -1.681 0.30000001
-1.01 -11.327 -1.681 0.28999999
-0.97500002 -11.336 -1.682 0.28999999
-0.94099998 -11.351 -1.683 0.28999999
-0.90399998 -11.348 -1.683 0.30000001
-0.88800001 -11.365 -1.6849999 0.31999999
-0.852 -11.368 -1.6849999 0.28
-0.81699997 -11.375 -1.686 0.31999999
-0.77999997 -11.369 -1.684 0.28
-0.74599999 -11.391 -1.688 0.28999999
-0.70899999 -11.378 -1.6849999 0.28999999
-0.67299998 -11.376 -1.684 0.30000001
-0.65700001 -11.399 -1.688 0.31999999
-0.62 -11.387 -1.686 0.28999999
-0.58499998 -11.399 -1.687 0.30000001
-0.55000001 -11.416 -1.6900001 0.30000001
-0.51300001 -11.404 -1.688 0.30000001
-0.47799999 -11.416 -1.689 0.30000001
-0.442 -11.431 -1.691 0.30000001
-0.42399999 -11.42 -1.689 0.28999999
-0.389 -11.433 -1.691 0.28999999
-0.35299999 -11.434 -1.691 0.28999999
-0.317 -11.429 -1.6900001 0.28999999
-0.28099999 -11.446 -1.693 0.34
-0.245 -11.451 -1.694 0.30000001
-0.20900001 -11.442 -1.692 0.30000001
-0.191 -11.444 -1.692 0.30000001
-0.155 -11.456 -1.694 0.28999999
-0.119 -11.447 -1.693 0.28
-0.082999997 -11.465 -1.6950001 0.33000001
-0.046999998 -11.455 -1.694 0.28
-0.011 -11.459 -1.694 0.31999999
0.0070000002 -11.469 -1.696 0.28
0.043000001 -11.483 -1.698 0.31999999
0.079000004 -11.467 -1.696 0.31999999
0.115 -11.471 -1.696 0.25999999
0.15099999 -11.482 -1.698 0.27000001
0.18700001 -11.47 -1.696 0.27000001
0.223 -11.485 -1.699 0.25999999
0.242 -11.5 -1.701 0.20999999
0.27900001 -11.551 -1.71 0.23999999
0.317 -11.595 -1.717 0.23
0.35499999 -11.644 -1.725 0.25999999
0.39399999 -11.71 -1.735 0.18000001
0.433 -11.756 -1.743 0.25999999
0.472 -11.823 -1.7539999 0.20999999
0.493 -11.862 -1.76 0.27000001
0.53299999 -11.923 -1.77 0.27000001
0.57200003 -11.963 -1.777 0.31
0.61299998 -12.013 -1.785 0.30000001
0.65200001 -12.044 -1.79 0.31999999
0.69099998 -12.054 -1.7920001 0.38
7.2729998 -8.7250004 -1.678 0.31999999
7.2870002 -8.6870003 -1.675 0.30000001
7.3010001 -8.6479998 -1.6720001 0.33000001
7.3080001 -8.6020002 -1.6670001 0.31999999
7.3319998 -8.5749998 -1.666 0.31
7.335 -8.5249996 -1.661 0.28999999
7.3499999 -8.4879999 -1.658 0.30000001
7.3449998 -8.4560003 -1.653 0.30000001
7.369 -8.4300003 -1.653 0.30000001
7.3829999 -8.3920002 -1.65 0.31999999
10.508 0.41999999 -1.648 0.33000001
10.503 0.45300001 -1.648 0.34
10.512 0.486 -1.649 0.31999999
10.516 0.51999998 -1.65 0.30000001
10.516 0.55299997 -1.651 0.30000001
10.52 0.58600003 -1.652 0.28999999
10.523 0.60299999 -1.652 0.30000001
10.527 0.63599998 -1.653 0.30000001
10.523 0.66900003 -1.653 0.28999999
10.527 0.70300001 -1.654 0.30000001
10.529 0.736 -1.655 0.31
10.546 0.76999998 -1.658 0.31999999
10.547 0.787 -1.658 0.31999999
10.554 0.82099998 -1.66 0.30000001
10.563 0.85500002 -1.6619999 0.31
10.578 0.88999999 -1.665 0.30000001
10.575 0.92299998 -1.665 0.30000001
10.57 0.95599997 -1.665 0.30000001
10.585 0.991 -1.668 0.31
10.597 1.0089999 -1.67 0.28999999
10.596 1.0420001 -1.67 0.30000001
10.606 1.077 -1.673 0.28999999
10.605 1.11 -1.673 0.28999999
10.607 1.1440001 -1.674 0.31
10.615 1.179 -1.676 0.28999999
10.615 1.2130001 -1.677 0.31999999
10.61 1.229 -1.676 0.27000001
10.61 1.263 -1.677 0.34
10.621 1.298 -1.679 0.30000001
10.629 1.3329999 -1.681 0.30000001
10.636 1.367 -1.683 0.30000001
10.634 1.401 -1.684 0.30000001
10.636 1.418 -1.684 0.30000001
10.637 1.4529999 -1.6849999 0.31
10.636 1.4859999 -1.686 0.31
10.637 1.521 -1.687 0.30000001
10.629 1.554 -1.686 0.30000001
10.632 1.5880001 -1.688 0.30000001
10.634 1.623 -1.689 0.30000001
10.642 1.641 -1.691 0.28999999
10.63 1.673 -1.6900001 0.30000001
10.631 1.7079999 -1.691 0.28999999
10.641 1.744 -1.693 0.28999999
10.638 1.777 -1.694 0.28999999
10.634 1.811 -1.694 0.30000001
10.631 1.8279999 -1.694 0.31999999
10.615 1.9630001 -1.6950001 0.30000001
10.613 1.997 -1.696 0.30000001
10.604 2.03 -1.696 0.30000001
10.603 2.0469999 -1.696 0.30000001
10.606 2.082 -1.698 0.30000001
10.598 2.115 -1.697 0.31
10.597 2.1489999 -1.698 0.30000001
10.588 2.1819999 -1.698 0.28999999
10.577 2.2149999 -1.697 0.28999999
10.568 2.247 -1.697 0.28999999
10.563 2.2639999 -1.697 0.31999999
10.552 2.296 -1.696 0.28
10.541 2.3280001 -1.6950001 0.30000001
10.53 2.3599999 -1.6950001 0.30000001
10.522 2.3940001 -1.6950001 0.31
10.513 2.4260001 -1.694 0.28999999
10.513 2.461 -1.696 0.34
10.503 2.4760001 -1.6950001 0.31999999
10.488 2.507 -1.693 0.28
10.482 2.5409999 -1.694 0.28
10.468 2.572 -1.693 0.28999999
10.492 2.6129999 -1.698 0.23999999
10.537 2.6589999 -1.7079999 0.30000001
10.585 2.6889999 -1.717 0.28999999
10.67 2.7460001 -1.733 0.27000001
10.751 2.803 -1.748 0.25
10.817 2.8559999 -1.761 0.27000001
10.886 2.911 -1.775 0.31
10.884 2.947 -1.776 0.31999999
10.868 2.961 -1.774 0.31
4.1269999 8.0889997 -1.406 0.31
-4.5190001 10.52 -1.806 0.31
-4.5580001 10.518 -1.808 0.28999999
-4.599 10.522 -1.811 0.30000001
-4.6409998 10.529 -1.8150001 0.31
-4.6760001 10.518 -1.816 0.30000001
-4.7129998 10.513 -1.818 0.28
-4.7600002 10.53 -1.824 0.31999999
-4.777 10.523 -1.824 0.28999999
-4.8109999 10.509 -1.824 0.28999999
-4.849 10.507 -1.826 0.30000001
-4.8839998 10.495 -1.827 0.28999999
-4.9219999 10.49 -1.829 0.28999999
-4.96 10.486 -1.831 0.28999999
-5.0019999 10.49 -1.835 0.31999999
-5.0170002 10.478 -1.834 0.28
-5.0539999 10.471 -1.836 0.28999999
-5.1009998 10.484 -1.841 0.31999999
-5.1399999 10.48 -1.8430001 0.30000001
-5.1789999 10.476 -1.846 0.30000001
-5.2160001 10.469 -1.847 0.30000001
-5.2389998 10.473 -1.85 0.30000001
-5.2779999 10.469 -1.852 0.31
-5.3150001 10.461 -1.854 0.28
-5.348 10.444 -1.854 0.31999999
-5.381 10.429 -1.854 0.31
-5.4200001 10.423 -1.8559999 0.30000001
-5.4530001 10.407 -1.8559999 0.30000001
-5.4809999 10.42 -1.86 0.30000001
-5.5139999 10.404 -1.8609999 0.30000001
-5.5580001 10.408 -1.865 0.31
-5.5830002 10.376 -1.862 0.28999999
-5.6290002 10.383 -1.867 0.31
-5.664 10.37 -1.868 0.27000001
-5.6989999 10.356 -1.868 0.31999999
-5.7210002 10.357 -1.87 0.28999999
-5.7620001 10.355 -1.873 0.30000001
-5.7909999 10.332 -1.872 0.28999999
-5.8270001 10.319 -1.873 0.28
-5.8670001 10.314 -1.876 0.28999999
-5.8940001 10.287 -1.874 0.28999999
-5.9260001 10.267 -1.874 0.28999999
-5.947 10.266 -1.876 0.28999999
-5.973 10.237 -1.874 0.25999999
-6.0040002 10.216 -1.873 0.34
-6.052 10.225 -1.8789999 0.28999999
-6.0799999 10.199 -1.877 0.28999999
-6.1160002 10.186 -1.8789999 0.28
-6.191 10.238 -1.893 0.33000001
-6.2119999 10.237 -1.8940001 0.18000001
-6.2639999 10.249 -1.901 0.27000001
-6.3049998 10.245 -1.903 0.23
-6.3369999 10.225 -1.903 0.17
-6.4029999 10.258 -1.914 0.38
-6.5300002 10.39 -1.944 0.30000001
-6.5510001 10.387 -1.946 0.28
-10.801 3.6170001 -1.796 0.27000001
-10.814 3.5829999 -1.796 0.28999999
-10.812 3.5450001 -1.794 0.28
-10.807 3.5050001 -1.791 0.28999999
-10.806 3.487 -1.79 0.31
-10.802 3.448 -1.7869999 0.28999999
-10.794 3.408 -1.784 0.30000001
-10.814 3.3770001 -1.785 0.28999999
-10.785 3.3310001 -1.778 0.31
-10.785 3.293 -1.776 0.30000001
-10.801 3.28 -1.778 0.31
-10.779 3.2360001 -1.773 0.31
-10.785 3.201 -1.772 0.28
-10.786 3.164 -1.77 0.31
-10.788 3.128 -1.7690001 0.28999999
-10.796 3.0940001 -1.7690001 0.28999999
-10.806 3.0599999 -1.7690001 0.28999999
-10.796 3.039 -1.766 0.28999999
-10.794 3.0009999 -1.7640001 0.28999999
-10.809 2.9690001 -1.765 0.28999999
-10.801 2.9300001 -1.762 0.28999999
-10.797 2.8929999 -1.76 0.28
-10.806 2.859 -1.76 0.28999999
-10.784 2.8169999 -1.7539999 0.23
-10.756 2.7909999 -1.749 0.28999999
-10.778 2.7609999 -1.751 0.38999999
-10.794 2.7290001 -1.752 0.38
-10.786 2.691 -1.749 0.28999999
-10.809 2.661 -1.752 0.31999999
-10.806 2.6240001 -1.75 0.30000001
-10.814 2.5899999 -1.75 0.28999999
-10.822 2.5739999 -1.751 0.28999999
-10.807 2.5350001 -1.747 0.28999999
-10.808 2.4990001 -1.7460001 0.28999999
-10.823 2.467 -1.747 0.28999999
-10.81 2.428 -1.743 0.28
-10.802 2.3900001 -1.7410001 0.28
-10.813 2.3570001 -1.7410001 0.28999999
-10.798 2.336 -1.738 0.31
-10.797 2.3 -1.737 0.31
-10.804 2.267 -1.737 0.28
-10.788 2.2279999 -1.733 0.30000001
-10.78 2.191 -1.73 0.31999999
-10.781 2.1559999 -1.729 0.34
-10.841 -0.91100001 -1.71 0.36000001
-11.542 -1.408 -1.836 0.31999999
-11.549 -1.446 -1.8380001 0.30000001
-11.566 -1.485 -1.841 0.30000001
-11.577 -1.523 -1.844 0.28999999
-11.574 -1.541 -1.844 0.28999999
-11.583 -1.579 -1.846 0.31999999
-11.588 -1.617 -1.848 0.30000001
-11.575 -1.652 -1.847 0.28999999
-11.581 -1.6900001 -1.849 0.28999999
-11.58 -1.727 -1.849 0.31999999
-11.563 -1.762 -1.847 0.28
-11.576 -1.783 -1.85 0.31999999
-11.572 -1.819 -1.85 0.30000001
-11.576 -1.857 -1.852 0.28999999
-11.564 -1.892 -1.851 0.30000001
-11.56 -1.929 -1.851 0.25999999
-11.548 -1.964 -1.85 0.27000001
-11.56 -1.985 -1.853 0.28
-11.548 -2.0209999 -1.852 0.27000001
-11.54 -2.056 -1.852 0.30000001
-11.549 -2.095 -1.854 0.30000001
-11.511 -2.1259999 -1.849 0.28999999
-11.508 -2.1630001 -1.85 0.31
-11.502 -2.1989999 -1.85 0.30000001
-11.485 -2.2149999 -1.847 0.28999999
-11.48 -2.2509999 -1.848 0.28999999
-11.478 -2.2880001 -1.849 0.28
-11.461 -2.322 -1.847 0.27000001
-11.46 -2.3599999 -1.848 0.28
-11.454 -2.3959999 -1.848 0.27000001
-11.445 -2.431 -1.848 0.27000001
-11.435 -2.448 -1.847 0.30000001
-11.431 -2.4849999 -1.848 0.28999999
-11.41 -2.5179999 -1.845 0.28999999
-11.41 -2.5550001 -1.847 0.28999999
-11.409 -2.5929999 -1.848 0.28
-11.382 -2.6240001 -1.845 0.27000001
-11.383 -2.6619999 -1.846 0.28
-11.388 -2.6830001 -1.848 0.18000001
-11.359 -2.789 -1.847 0.20999999
-11.342 -2.823 -1.846 0.27000001
-11.343 -2.8610001 -1.848 0.27000001
-11.336 -2.8970001 -1.848 0.27000001
-11.327 -2.914 -1.847 0.27000001
-11.318 -2.9489999 -1.847 0.27000001
-11.315 -2.9860001 -1.848 0.25999999
-11.303 -3.0209999 -1.848 0.25999999
-11.296 -3.0569999 -1.848 0.22
-11.233 -3.0780001 -1.839 0
-10.775 -2.9719999 -1.76 0
-10.25 -3.0020001 -1.676 0
-8.1079998 -8.6689997 -1.877 0.34
-8.0559998 -8.6669998 -1.87 0.36000001
-8.0109997 -8.6730003 -1.8660001 0.28999999
-7.8790002 -8.585 -1.84 0.17
-7.8870001 -8.6479998 -1.849 0.090000004
-7.8109999 -8.618 -1.836 0.079999998
-7.75 -8.6059999 -1.8279999 0.17
-7.7329998 -8.6140003 -1.827 0.22
-7.7199998 -8.6549997 -1.831 0.17
-7.7179999 -8.7069998 -1.837 0.23
-7.697 -8.7379999 -1.839 0.19
-7.671 -8.7639999 -1.839 0.12
-7.6630001 -8.8100004 -1.844 0.18000001
-7.6420002 -8.842 -1.846 0.23
-7.638 -8.8660002 -1.848 0.23
-7.6149998 -8.8959999 -1.85 0.25999999
-7.5669999 -8.8959999 -1.844 0.28
-7.178 -8.4940004 -1.75 0.059999999
-5.4720001 -10.001 -1.7970001 0.30000001
-5.428 -9.9960003 -1.793 0.27000001
-5.4099998 -10.001 -1.7920001 0.28999999
-5.3870001 -10.034 -1.795 0.28999999
-5.3400002 -10.021 -1.79 0.28999999
-5.2839999 -9.993 -1.781 0.23
-5.223 -9.9530001 -1.77 0.28
-5.1669998 -9.9219999 -1.761 0.44999999
-5.1329999 -9.8940001 -1.7539999 0.30000001
-5.0939999 -9.8959999 -1.752 0.44
-5.0619998 -9.9099998 -1.751 0.28999999
-5.006 -9.9540005 -1.7539999 0.28999999
-4.8590002 -10.092 -1.7640001 0.44999999
-4.803 -10.137 -1.766 0.36000001
-4.7810001 -10.173 -1.77 0.38999999
-4.7579999 -10.167 -1.768 0.33000001
-4.7319999 -10.194 -1.77 0.34
-4.7020001 -10.212 -1.771 0.33000001
-4.6570001 -10.2 -1.766 0.31999999
-4.619 -10.202 -1.763 0.31999999
-4.5949998 -10.233 -1.766 0.31999999
-4.573 -10.227 -1.7640001 0.31999999
-4.5409999 -10.242 -1.7640001 0.31
-4.5029998 -10.243 -1.762 0.27000001
-4.4580002 -10.229 -1.756 0.31
-4.427 -10.246 -1.757 0.41
-4.3940001 -10.256 -1.756 0.36000001
-4.0079999 -9.4840002 -1.6109999 0.22
-4.0479999 -9.7469997 -1.655 0.36000001
-3.846 -9.3459997 -1.579 0.30000001
-3.575 -10.252 -1.706 0.46000001
-3.5580001 -10.306 -1.714 0.28
-3.5109999 -10.275 -1.706 0.28
-3.4820001 -10.295 -1.7079999 0.38999999
-3.4530001 -10.315 -1.709 0.28999999
-3.438 -10.326 -1.71 0.31999999
-3.405 -10.335 -1.71 0.34
-3.369 -10.335 -1.7079999 0.28999999
-3.329 -10.323 -1.704 0.2
-3.2149999 -10.08 -1.659 0.49000001
-3.257 -10.321 -1.7 0.30000001
-3.2409999 -10.326 -1.7 0.30000001
-3.21 -10.342 -1.701 0.33000001
-3.174 -10.34 -1.699 0.28999999
-3.1340001 -10.324 -1.694 0.31999999
-3.102 -10.336 -1.6950001 0.31999999
-3.0710001 -10.351 -1.696 0.31999999
-3.033 -10.344 -1.693 0.28999999
-3.0150001 -10.343 -1.692 0.30000001
-2.9820001 -10.35 -1.691 0.30000001
-2.948 -10.354 -1.6900001 0.30000001
-2.915 -10.359 -1.6900001 0.31999999
-2.882 -10.366 -1.689 0.31
-2.849 -10.375 -1.689 0.31
-2.8139999 -10.377 -1.688 0.28999999
-2.7969999 -10.379 -1.688 0.30000001
-2.7620001 -10.378 -1.686 0.31999999
-2.73 -10.387 -1.686 0.28999999
-2.698 -10.399 -1.687 0.34
-2.6619999 -10.396 -1.6849999 0.27000001
-2.628 -10.397 -1.683 0.34
-2.595 -10.405 -1.683 0.31999999
-2.576 -10.4 -1.682 0.27000001
-2.5420001 -10.4 -1.6799999 0.33000001
-2.5079999 -10.404 -1.6799999 0.31999999
-2.474 -10.404 -1.678 0.31999999
-2.4460001 -10.435 -1.682 0.31
-2.418 -10.464 -1.686 0.33000001
-2.404 -10.477 -1.688 0.31999999
-2.3729999 -10.49 -1.689 0.31
-2.339 -10.494 -1.688 0.31
-2.3069999 -10.505 -1.689 0.31999999
-2.2739999 -10.514 -1.689 0.31
-2.2460001 -10.543 -1.693 0.31999999
-2.2130001 -10.55 -1.693 0.27000001
-2.1930001 -10.54 -1.6900001 0.25
-2.1589999 -10.543 -1.6900001 0.30000001
-2.128 -10.561 -1.692 0.28999999
-2.0999999 -10.591 -1.696 0.31
-2.063 -10.578 -1.692 0.28
-2.0309999 -10.594 -1.694 0.28999999
-1.999 -10.602 -1.694 0.30000001
-1.9809999 -10.603 -1.694 0.31
-1.947 -10.602 -1.693 0.30000001
-1.9170001 -10.627 -1.696 0.30000001
-1.881 -10.618 -1.693 0.28999999
-1.848 -10.626 -1.694 0.28999999
-1.816 -10.641 -1.6950001 0.28999999
-1.78 -10.629 -1.692 0.30000001
-1.765 -10.644 -1.694 0.30000001
-1.732 -10.655 -1.6950001 0.28999999
-1.698 -10.653 -1.694 0.30000001
-1.664 -10.656 -1.694 0.31999999
-1.633 -10.677 -1.696 0.31999999
-1.597 -10.67 -1.694 0.31
-1.582 -10.68 -1.696 0.31
-1.551 -10.703 -1.699 0.28999999
-1.5140001 -10.682 -1.694 0.27000001
-1.4809999 -10.693 -1.6950001 0.31999999
-1.449 -10.707 -1.697 0.31
-1.415 -10.71 -1.697 0.30000001
-1.397 -10.704 -1.6950001 0.28
-1.367 -10.736 -1.7 0.31999999
-1.329 -10.711 -1.6950001 0.27000001
-1.2970001 -10.729 -1.697 0.28999999
-1.265 -10.742 -1.699 0.28999999
-1.23 -10.74 -1.698 0.28999999
-1.199 -10.762 -1.701 0.31999999
-1.182 -10.768 -1.702 0.28
-1.149 -10.773 -1.702 0.31999999
-1.115 -10.775 -1.702 0.28
-1.0829999 -10.8 -1.705 0.31999999
-1.048 -10.791 -1.7029999 0.28999999
-1.0140001 -10.793 -1.7029999 0.28999999
-0.98000002 -10.804 -1.704 0.30000001
-0.96200001 -10.788 -1.701 0.28999999
-0.92799997 -10.791 -1.701 0.28999999
-0.89499998 -10.807 -1.704 0.30000001
-0.86000001 -10.798 -1.702 0.30000001
-0.82700002 -10.805 -1.702 0.28999999
-0.79299998 -10.809 -1.7029999 0.28999999
-0.759 -10.812 -1.7029999 0.28999999
-0.74000001 -10.791 -1.699 0.27000001
-0.708 -10.811 -1.702 0.31999999
-0.67299998 -10.804 -1.7 0.28999999
-0.639 -10.804 -1.7 0.31
-0.60600001 -10.817 -1.702 0.27000001
-0.57200003 -10.829 -1.704 0.31999999
-0.55599999 -10.84 -1.705 0.28999999
-0.52100003 -10.834 -1.704 0.28
-0.48800001 -10.847 -1.706 0.31999999
-0.454 -10.86 -1.7079999 0.30000001
-0.41999999 -10.864 -1.7079999 0.31
-0.38600001 -10.857 -1.707 0.27000001
-0.352 -10.872 -1.709 0.28999999
-0.33500001 -10.875 -1.71 0.31999999
-0.301 -10.879 -1.71 0.28999999
-0.26699999 -10.867 -1.7079999 0.31999999
-0.233 -10.871 -1.709 0.28
-0.199 -10.878 -1.71 0.28
-0.16500001 -10.882 -1.71 0.20999999
-0.131 -10.914 -1.716 0.28
-0.114 -10.934 -1.719 0.23
-0.079999998 -10.976 -1.726 0.23999999
-0.046 -11.014 -1.732 0.16
-0.011 -11.039 -1.737 0.43000001
0.023 -11.097 -1.7460001 0.34
0.059 -11.169 -1.758 0.25
0.075999998 -11.179 -1.76 0.18000001
0.112 -11.244 -1.771 0.31
0.147 -11.267 -1.775 0.37
0.183 -11.277 -1.777 0.38999999
0.22 -11.353 -1.79 0.41
0.25600001 -11.38 -1.794 0.34
6.9099998 -8.316 -1.698 0.28999999
6.928 -8.2840004 -1.696 0.30000001
6.9380002 -8.2440004 -1.692 0.31
6.9629998 -8.2209997 -1.692 0.30000001
6.9590001 -8.1899996 -1.687 0.30000001
6.9699998 -8.1499996 -1.683 0.31
6.9840002 -8.1149998 -1.6799999 0.31
6.9889998 -8.0690002 -1.675 0.31
7.0089998 -8.0410004 -1.674 0.28999999
7.0209999 -8.0039997 -1.67 0.31999999
7.0149999 -7.9720001 -1.666 0.31
7.0289998 -7.9369998 -1.663 0.30000001
7.0440001 -7.9039998 -1.66 0.30000001
7.0500002 -7.8600001 -1.655 0.28
7.0599999 -7.822 -1.652 0.33000001
9.9200001 0.046999998 -1.635 0.38999999
9.9289999 0.078000002 -1.637 0.34999999
9.9350004 0.109 -1.638 0.31999999
9.9390001 0.125 -1.6390001 0.30000001
9.9460001 0.156 -1.64 0.31
9.9420004 0.18700001 -1.6390001 0.31999999
9.9549999 0.219 -1.642 0.31
9.9759998 0.25099999 -1.646 0.34999999
9.9689999 0.28200001 -1.645 0.30000001
9.974 0.31299999 -1.646 0.31
9.9949999 0.33000001 -1.65 0.31
9.9980001 0.361 -1.65 0.31
9.9870005 0.39199999 -1.648 0.30000001
9.9989996 0.42399999 -1.651 0.34
9.9879999 0.45500001 -1.649 0.30000001
10.002 0.48699999 -1.652 0.30000001
10.007 0.51899999 -1.653 0.31
10.006 0.53500003 -1.653 0.30000001
10.014 0.56699997 -1.655 0.30000001
10.014 0.59899998 -1.655 0.31
10.03 0.63099998 -1.658 0.33000001
10.024 0.662 -1.658 0.28999999
10.032 0.69499999 -1.659 0.34
10.026 0.70999998 -1.659 0.30000001
10.032 0.74199998 -1.66 0.31
10.038 0.77399999 -1.661 0.31
10.051 0.80699998 -1.664 0.34
10.044 0.838 -1.664 0.28999999
10.042 0.87 -1.664 0.30000001
10.051 0.903 -1.666 0.31
10.055 0.91900003 -1.6670001 0.31
10.06 0.95099998 -1.668 0.30000001
10.069 0.98400003 -1.67 0.31999999
10.077 1.017 -1.6720001 0.31
10.082 1.049 -1.674 0.30000001
10.08 1.081 -1.674 0.30000001
10.085 1.098 -1.675 0.33000001
10.083 1.13 -1.675 0.25999999
10.087 1.1619999 -1.677 0.34999999
10.093 1.1950001 -1.679 0.33000001
10.115 1.23 -1.683 0.34999999
10.103 1.261 -1.682 0.30000001
10.119 1.295 -1.6849999 0.34999999
10.117 1.311 -1.6849999 0.28999999
10.13 1.345 -1.688 0.34
10.136 1.378 -1.6900001 0.28999999
10.135 1.411 -1.691 0.31
10.142 1.444 -1.693 0.30000001
10.14 1.476 -1.693 0.30000001
10.143 1.5089999 -1.6950001 0.36000001
10.146 1.526 -1.696 0.30000001
10.143 1.558 -1.696 0.31999999
10.152 1.592 -1.698 0.34
10.149 1.624 -1.699 0.30000001
10.146 1.6569999 -1.699 0.34
10.131 1.687 -1.697 0.31999999
10.125 1.719 -1.697 0.30000001
10.13 1.7359999 -1.699 0.34
10.111 1.765 -1.696 0.28999999
10.102 1.796 -1.696 0.30000001
10.092 1.827 -1.6950001 0.30000001
10.073 1.857 -1.693 0.31
10.077 1.89 -1.694 0.34999999
10.064 1.904 -1.693 0.30000001
10.056 1.9349999 -1.692 0.30000001
10.054 1.9680001 -1.693 0.31
10.042 1.998 -1.692 0.30000001
10.032 2.029 -1.691 0.30000001
10.029 2.0610001 -1.692 0.31
10.014 2.0739999 -1.6900001 0.30000001
10.008 2.1059999 -1.6900001 0.30000001
10.003 2.138 -1.6900001 0.31999999
10.006 2.171 -1.692 0.33000001
10.001 2.2030001 -1.692 0.31999999
10.002 2.2360001 -1.694 0.30000001
9.9890003 2.266 -1.693 0.28999999
9.9849997 2.2820001 -1.693 0.27000001
10.032 2.326 -1.702 0.28999999
10.08 2.3710001 -1.712 0.31
10.141 2.4189999 -1.725 0.31
10.218 2.471 -1.74 0.31999999
10.275 2.52 -1.752 0.28999999
10.326 2.5669999 -1.763 0.31
10.355 2.5910001 -1.7690001 0.34999999
10.343 2.6229999 -1.768 0.31999999
10.325 2.6530001 -1.767 0.28999999
4.1630001 8.1339998 -1.4960001 0.38
4.1269999 8.0950003 -1.487 0.38
3.8570001 7.9289999 -1.4400001 0.34
-4.158 9.9890003 -1.795 0.47999999
-4.1929998 9.9849997 -1.7970001 0.38
-4.2309999 9.9860001 -1.799 0.41999999
-4.2589998 10.008 -1.8049999 0.34
-4.2930002 10 -1.806 0.34
-4.3239999 9.9870005 -1.806 0.30000001
-4.3660002 9.9960003 -1.811 0.33000001
-4.4000001 9.9899998 -1.812 0.31
-4.4299998 9.9720001 -1.811 0.31
-4.474 9.9849997 -1.817 0.34
-4.4840002 9.9659996 -1.814 0.28999999
-4.5209999 9.9639997 -1.817 0.30000001
-4.5560002 9.9589996 -1.818 0.33000001
-4.5879998 9.9460001 -1.819 0.28999999
-4.6350002 9.9659996 -1.825 0.34999999
-4.6690001 9.9560003 -1.826 0.30000001
-4.6999998 9.9420004 -1.826 0.31
-4.723 9.9490004 -1.829 0.30000001
-4.7579999 9.9429998 -1.831 0.31999999
-4.7940001 9.9379997 -1.8329999 0.34
-4.8249998 9.9209995 -1.8329999 0.31999999
-4.868 9.9309998 -1.8380001 0.31999999
-4.8979998 9.9139996 -1.837 0.31999999
-4.9330001 9.9049997 -1.839 0.31999999
-4.9549999 9.9099998 -1.841 0.27000001
-4.9860001 9.8940001 -1.841 0.33000001
-5.0209999 9.8859997 -1.842 0.31999999
-5.0599999 9.8859997 -1.846 0.33000001
-5.0890002 9.8660002 -1.845 0.31
-5.125 9.8610001 -1.847 0.31999999
-5.1620002 9.8549995 -1.849 0.31
-5.1760001 9.8450003 -1.849 0.30000001
-5.2140002 9.8409996 -1.851 0.28999999
-5.2529998 9.8400002 -1.854 0.36000001
-5.2789998 9.8149996 -1.853 0.31
-5.3169999 9.8100004 -1.855 0.31
-5.3610001 9.8179998 -1.86 0.31999999
-5.3759999 9.809 -1.86 0.31
-5.4130001 9.8030005 -1.862 0.31
-5.4489999 9.7959995 -1.864 0.31
-5.4819999 9.7819996 -1.865 0.33000001
-5.5209999 9.7799997 -1.868 0.33000001
-5.559 9.7749996 -1.87 0.31999999
-5.5840001 9.7469997 -1.868 0.31
-5.612 9.7259998 -1.868 0.31999999
-5.632 9.7259998 -1.869 0.28999999
-5.6659999 9.7130003 -1.87 0.31999999
-5.6859999 9.6780005 -1.867 0.28999999
-5.723 9.6709995 -1.869 0.25999999
-5.7550001 9.6560001 -1.87 0.23999999
-5.7940001 9.651 -1.872 0.2
-5.8429999 9.698 -1.8839999 0.28999999
-5.8720002 9.6780005 -1.8839999 0.25
-5.9130001 9.6759996 -1.887 0.25
-5.9689999 9.6990004 -1.896 0.23999999
-5.9850001 9.6569996 -1.891 0.19
-6.1209998 9.8070002 -1.926 0.40000001
-6.1869998 9.8439999 -1.938 0.38999999
-10.28 3.517 -1.803 0.22
-10.295 3.4860001 -1.804 0.31
-10.307 3.454 -1.804 0.28999999
-10.316 3.421 -1.804 0.28999999
-10.316 3.385 -1.802 0.30000001
-10.321 3.369 -1.802 0.28999999
-10.332 3.3369999 -1.802 0.28999999
-10.323 3.2980001 -1.798 0.28999999
-10.33 3.2650001 -1.7970001 0.28999999
-10.348 3.234 -1.799 0.31999999
-10.343 3.197 -1.796 0.31
-10.345 3.1630001 -1.795 0.28
-10.342 3.1440001 -1.793 0.30000001
-10.313 3.0999999 -1.786 0.23999999
-10.326 3.0680001 -1.7869999 0.38
-10.339 3.0369999 -1.7869999 0.31999999
-10.336 3.0009999 -1.785 0.30000001
-10.347 2.9690001 -1.785 0.30000001
-10.345 2.9330001 -1.783 0.30000001
-10.336 2.9130001 -1.781 0.30000001
-10.336 2.878 -1.779 0.31999999
-10.35 2.8469999 -1.78 0.31999999
-10.342 2.8099999 -1.777 0.31999999
-10.338 2.7739999 -1.774 0.31999999
-10.352 2.743 -1.775 0.30000001
-10.342 2.7049999 -1.772 0.31
-10.334 2.6860001 -1.77 0.31999999
-10.347 2.655 -1.77 0.30000001
-10.336 2.6170001 -1.767 0.34
-10.336 2.5829999 -1.766 0.31999999
-10.344 2.5510001 -1.766 0.31
-10.343 2.516 -1.7640001 0.30000001
-10.343 2.4990001 -1.763 0.30000001
-10.353 2.467 -1.763 0.34
-10.335 2.428 -1.7589999 0.28
-10.341 2.395 -1.7589999 0.30000001
-10.347 2.362 -1.758 0.31999999
-10.331 2.325 -1.7539999 0.28
-10.332 2.2909999 -1.753 0.34
-10.336 2.2750001 -1.753 0.36000001
-10.331 2.24 -1.751 0.31999999
-10.335 2.207 -1.75 0.31999999
-10.334 2.1719999 -1.749 0.31999999
-10.329 2.138 -1.747 0.31
-10.33 2.1040001 -1.7460001 0.31999999
-10.34 2.072 -1.7460001 0.31999999
-10.313 2.05 -1.7410001 0.28999999
-10.334 2.0209999 -1.744 0.33000001
-10.331 1.9859999 -1.742 0.31999999
-10.324 1.951 -1.739 0.30000001
-10.336 1.92 -1.74 0.30000001
-10.324 1.8839999 -1.737 0.31
-10.32 1.85 -1.7359999 0.31
-10.335 1.836 -1.738 0.31999999
-10.327 1.801 -1.735 0.30000001
-10.317 1.766 -1.732 0.31
-10.319 1.733 -1.732 0.31999999
-10.309 1.698 -1.729 0.28999999
-10.314 1.666 -1.729 0.34
-10.323 1.6339999 -1.73 0.31999999
-10.306 1.615 -1.726 0.28999999
-10.307 1.582 -1.725 0.34
-10.302 1.548 -1.724 0.30000001
-9.5810003 -0.43599999 -1.577 0.28999999
-10.778 -0.90100002 -1.794 0.37
-10.777 -0.93599999 -1.795 0.27000001
-10.804 -0.972 -1.8 0.36000001
-10.829 -0.99199998 -1.8049999 0.34
-10.832 -1.026 -1.806 0.34999999
-10.856 -1.063 -1.811 0.31999999
-10.876 -1.1 -1.8150001 0.31999999
-10.855 -1.132 -1.812 0.30000001
-10.865 -1.1670001 -1.814 0.28999999
-10.893 -1.188 -1.819 0.33000001
-10.883 -1.221 -1.818 0.31
-10.885 -1.256 -1.819 0.30000001
-10.897 -1.2920001 -1.822 0.30000001
-10.877 -1.325 -1.819 0.28999999
-10.881 -1.36 -1.821 0.31
-10.902 -1.397 -1.825 0.31999999
-10.874 -1.411 -1.821 0.28999999
-10.885 -1.447 -1.824 0.28999999
-10.89 -1.483 -1.825 0.28999999
-10.878 -1.516 -1.824 0.28999999
-10.881 -1.551 -1.825 0.31
-10.886 -1.587 -1.827 0.28
-10.883 -1.6210001 -1.827 0.31
-10.87 -1.637 -1.826 0.28
-10.896 -1.676 -1.831 0.31999999
-10.883 -1.709 -1.83 0.31
-10.868 -1.7410001 -1.8279999 0.28999999
-10.884 -1.779 -1.832 0.28999999
-10.867 -1.811 -1.83 0.31
-10.861 -1.845 -1.83 0.30000001
-10.873 -1.865 -1.8329999 0.28999999
-10.862 -1.898 -1.832 0.28999999
-10.862 -1.934 -1.8329999 0.30000001
-10.853 -1.967 -1.832 0.28999999
-10.861 -2.0039999 -1.835 0.31999999
-10.856 -2.0380001 -1.835 0.28999999
-10.867 -2.076 -1.8380001 0.31
-10.856 -2.0910001 -1.837 0.30000001
-10.846 -2.125 -1.836 0.31
-10.856 -2.1619999 -1.839 0.28999999
-10.838 -2.194 -1.837 0.30000001
-10.835 -2.2290001 -1.8380001 0.30000001
-10.83 -2.263 -1.8380001 0.28999999
-10.815 -2.2780001 -1.836 0.31
-10.815 -2.313 -1.8380001 0.30000001
-10.821 -2.3499999 -1.84 0.30000001
-10.802 -2.382 -1.8380001 0.28
-10.797 -2.4159999 -1.8380001 0.28999999
-10.808 -2.454 -1.842 0.28
-10.781 -2.484 -1.8380001 0.30000001
-10.768 -2.4990001 -1.836 0.31
-10.773 -2.536 -1.839 0.28999999
-10.765 -2.569 -1.839 0.14
-10.743 -2.671 -1.839 0.28
-10.755 -2.71 -1.8430001 0.28999999
-10.739 -2.724 -1.841 0.30000001
-10.731 -2.7579999 -1.841 0.28999999
-10.707 -2.7880001 -1.8380001 0.27000001
-10.7 -2.822 -1.839 0.31999999
-10.693 -2.8559999 -1.839 0.28999999
-10.684 -2.8900001 -1.839 0.28999999
-10.667 -2.921 -1.8380001 0.28999999
-10.661 -2.937 -1.837 0.28999999
-10.648 -2.97 -1.836 0.28999999
-10.642 -3.0039999 -1.837 0.30000001
-10.621 -3.0339999 -1.835 0.28999999
-10.625 -3.072 -1.8380001 0.30000001
-10.604 -3.102 -1.835 0.28999999
-10.603 -3.138 -1.837 0.28999999
-10.593 -3.1530001 -1.836 0.28999999
-10.588 -3.188 -1.837 0.28999999
-10.578 -3.221 -1.837 0.28999999
-10.555 -3.25 -1.835 0.28999999
-10.554 -3.286 -1.836 0.27000001
-10.538 -3.3169999 -1.835 0.25999999
-10.531 -3.3329999 -1.835 0.30000001
-10.519 -3.3659999 -1.835 0.30000001
-10.508 -3.3989999 -1.835 0.31999999
-10.505 -3.434 -1.836 0.31999999
-10.488 -3.4649999 -1.835 0.33000001
-10.519 -3.5120001 -1.8430001 0.31
-10.513 -3.5469999 -1.844 0.31
-10.509 -3.5639999 -1.844 0.28999999
-10.494 -3.596 -1.8430001 0.28999999
-10.492 -3.632 -1.845 0.28
-10.52 -3.6789999 -1.853 0.25
-10.597 -3.744 -1.869 0.18000001
-10.71 -3.8210001 -1.893 0.33000001
-10.735 -3.869 -1.9 0.34999999
-10.769 -3.9000001 -1.9069999 0.41
-7.599 -8.3290005 -1.876 0.30000001
-7.5840001 -8.3660002 -1.8789999 0.33000001
-7.5489998 -8.3529997 -1.873 0.25999999
-7.5050001 -8.3579998 -1.868 0.31999999
-7.4580002 -8.3579998 -1.863 0.41
-7.4099998 -8.3559999 -1.857 0.28999999
-7.3639998 -8.3570004 -1.852 0.33000001
-7.3390002 -8.382 -1.852 0.38
-7.309 -8.3999996 -1.851 0.31999999
-7.2859998 -8.401 -1.848 0.33000001
-7.27 -8.4359999 -1.851 0.33000001
-7.2550001 -8.4720001 -1.854 0.31999999
-7.2220001 -8.4879999 -1.853 0.25
-7.198 -8.5129995 -1.853 0.16
-5.3639998 -9.3739996 -1.791 0.28
-5.3499999 -9.4180002 -1.7970001 0.34
-5.3080001 -9.4119997 -1.7920001 0.23
-5.1939998 -9.4870005 -1.794 0.18000001
-5.1760001 -9.4899998 -1.793 0.34
-5.145 -9.5039997 -1.793 0.30000001
-5.1170001 -9.5240002 -1.794 0.31
-5.0760002 -9.5190001 -1.789 0.30000001
-5.053 -9.5469999 -1.7920001 0.31999999
-5.0159998 -9.5509996 -1.789 0.31999999
-4.9980001 -9.552 -1.788 0.34
-4.9679999 -9.5670004 -1.788 0.31
-4.934 -9.5760002 -1.7869999 0.31999999
-4.8930001 -9.5699997 -1.7819999 0.30000001
-4.8649998 -9.5889997 -1.783 0.30000001
-4.8340001 -9.6029997 -1.783 0.31
-4.7919998 -9.5950003 -1.778 0.31999999
-4.776 -9.6009998 -1.778 0.30000001
-4.7459998 -9.6160002 -1.778 0.31999999
-4.7059999 -9.6110001 -1.774 0.31999999
-4.6719999 -9.6169996 -1.772 0.31
-4.6409998 -9.6300001 -1.772 0.30000001
-4.6030002 -9.6280003 -1.7690001 0.31999999
-4.579 -9.618 -1.765 0.34
-4.5489998 -9.632 -1.765 0.31999999
-4.5139999 -9.6359997 -1.763 0.31
-4.4819999 -9.6459999 -1.762 0.31
-4.448 -9.6529999 -1.761 0.31999999
-4.4120002 -9.6540003 -1.7589999 0.31
-4.3800001 -9.665 -1.758 0.31
-4.3590002 -9.6590004 -1.755 0.31
-4.3270001 -9.6689997 -1.755 0.31999999
-4.2940001 -9.6750002 -1.753 0.33000001
-4.2589998 -9.6780005 -1.751 0.34
-4.2280002 -9.691 -1.751 0.34
-4.197 -9.7030001 -1.751 0.33000001
-4.1620002 -9.7049999 -1.749 0.25999999
-4.0640001 -9.5159998 -1.711 0.38
-4.086 -9.6520004 -1.735 0.37
-4.0819998 -9.7279997 -1.747 0.34
-4.053 -9.7449999 -1.748 0.34
-4.0180001 -9.7480001 -1.7460001 0.27000001
-3.983 -9.75 -1.744 0.41
-3.826 -9.448 -1.684 0.23999999
-3.8069999 -9.7989998 -1.74 0.31
-3.7720001 -9.8000002 -1.738 0.36000001
-3.753 -9.7959995 -1.737 0.34
-3.7219999 -9.8079996 -1.737 0.31999999
-3.6849999 -9.8030005 -1.733 0.34
-3.6530001 -9.8109999 -1.733 0.38
-3.6199999 -9.8170004 -1.732 0.33000001
-3.5840001 -9.8129997 -1.729 0.33000001
-3.549 -9.8120003 -1.726 0.34
-3.527 -9.7989998 -1.723 0.28999999
-3.49 -9.7930002 -1.72 0.34999999
-3.4549999 -9.7910004 -1.717 0.34999999
-3.4170001 -9.783 -1.714 0.33000001
-3.381 -9.7790003 -1.711 0.36000001
-3.346 -9.776 -1.709 0.30000001
-3.312 -9.7770004 -1.707 0.31
-3.2920001 -9.7679996 -1.704 0.30000001
-3.256 -9.7609997 -1.701 0.33000001
-3.2260001 -9.7729998 -1.701 0.31
-3.187 -9.7589998 -1.697 0.31999999
-3.1570001 -9.7709999 -1.697 0.34
-3.1259999 -9.7810001 -1.697 0.28999999
-3.0940001 -9.7869997 -1.696 0.34999999
-3.079 -9.7919998 -1.696 0.30000001
-3.0510001 -9.809 -1.698 0.36000001
-3.016 -9.8070002 -1.696 0.33000001
-2.987 -9.8199997 -1.696 0.34
-2.957 -9.835 -1.697 0.31999999
-2.928 -9.8500004 -1.698 0.34
-2.9089999 -9.8430004 -1.696 0.31
-2.8829999 -9.868 -1.699 0.31999999
-2.849 -9.8649998 -1.697 0.34
-2.8199999 -9.882 -1.698 0.31999999
-2.789 -9.8900003 -1.698 0.31999999
-2.757 -9.8970003 -1.698 0.28999999
-2.724 -9.8979998 -1.697 0.34999999
-2.707 -9.8970003 -1.696 0.28999999
-2.6730001 -9.8959999 -1.694 0.37
-2.6440001 -9.9119997 -1.6950001 0.31999999
-2.6140001 -9.9259996 -1.696 0.33000001
-2.5799999 -9.9219999 -1.694 0.31
-2.549 -9.9309998 -1.694 0.31999999
-2.5190001 -9.9420004 -1.6950001 0.31999999
-2.5009999 -9.9370003 -1.693 0.31999999
-2.467 -9.9329996 -1.691 0.31
-2.441 -9.9619999 -1.6950001 0.30000001
-2.404 -9.948 -1.691 0.31
-2.3740001 -9.96 -1.692 0.31
-2.346 -9.9809999 -1.694 0.31
-2.3099999 -9.9709997 -1.691 0.31999999
-2.2939999 -9.9720001 -1.691 0.34
-2.266 -9.993 -1.693 0.34
-2.2320001 -9.9860001 -1.691 0.31999999
-2.2049999 -10.015 -1.6950001 0.34999999
-2.175 -10.027 -1.696 0.33000001
-2.141 -10.022 -1.694 0.30000001
-2.1270001 -10.034 -1.6950001 0.30000001
-2.0969999 -10.048 -1.696 0.31
-2.0669999 -10.062 -1.698 0.36000001
-2.0320001 -10.053 -1.6950001 0.30000001
-2.0009999 -10.065 -1.696 0.30000001
-1.9680001 -10.064 -1.6950001 0.31999999
-1.956 -10.084 -1.698 0.31999999
-1.924 -10.088 -1.697 0.31
-1.89 -10.083 -1.6950001 0.31999999
-1.859 -10.094 -1.696 0.31999999
-1.829 -10.108 -1.698 0.31999999
-1.794 -10.098 -1.6950001 0.31999999
-1.763 -10.106 -1.6950001 0.31999999
-1.751 -10.128 -1.699 0.31999999
-1.7180001 -10.131 -1.698 0.34
-1.6849999 -10.125 -1.696 0.28999999
-1.6569999 -10.154 -1.701 0.31
-1.623 -10.149 -1.699 0.33000001
-1.589 -10.141 -1.696 0.31
-1.561 -10.173 -1.701 0.31999999
