# .PCD v0.7 - Point Cloud Data file format
VERSION 0.7
FIELDS x y z intensity
SIZE 4 4 4 4
TYPE F F F F
COUNT 1 1 1 1
WIDTH 1373
HEIGHT 1
VIEWPOINT 0 0 0 1 0 0 0
POINTS 1373
DATA ascii
1.432 10.765 -0.67000002 0.38999999
1.402 10.799 -0.67199999 0.34
1.372 10.835 -0.67500001 0.36000001
1.3430001 10.877 -0.67799997 0.37
1.331 10.918 -0.68099999 0.36000001
1.301 10.962 -0.68400002 0.38
1.272 11.012 -0.68800002 0.37
1.2410001 11.043 -0.69 0.38
1.211 11.087 -0.69400001 0.38
1.181 11.14 -0.69800001 0.31999999
1.149 11.175 -0.69999999 0.40000001
1.137 11.225 -0.704 0.38999999
1.104 11.258 -0.70599997 0.38999999
1.074 11.309 -0.70999998 0.34
1.043 11.36 -0.71399999 0.41
1.011 11.405 -0.71700001 0.40000001
0.97799999 11.44 -0.72000003 0.36000001
0.94599998 11.489 -0.72399998 0.38
0.93099999 11.528 -0.727 0.37
0.898 11.572 -0.73000002 0.37
0.866 11.629 -0.73400003 0.38
0.83200002 11.675 -0.73799998 0.33000001
0.79799998 11.718 -0.741 0.46000001
0.76499999 11.774 -0.745 0.30000001
0.73100001 11.816 -0.74900001 0.44
0.71499997 11.857 -0.75199997 0.40000001
0.68099999 11.919 -0.75700003 0.34999999
0.64600003 11.967 -0.75999999 0.41999999
0.611 12.016 -0.764 0.41999999
0.57599998 12.068 -0.76800001 0.41
0.54000002 12.124 -0.77200001 0.34
0.523 12.164 -0.77600002 0.43000001
0.48699999 12.226 -0.77999997 0.33000001
0.45100001 12.267 -0.78399998 0.43000001
0.414 12.326 -0.78799999 0.34
0.377 12.371 -0.792 0.44
0.34599999 12.643 -0.81400001 0.38999999
0.207 12.628 -0.81199998 0.43000001
0.168 12.687 -0.81699997 0.41
0.12800001 12.735 -0.82099998 0.40000001
0.089000002 12.799 -0.82599998 0.41999999
0.048999999 12.849 -0.82999998 0.38
0.028999999 12.913 -0.83499998 0.38999999
-0.011 12.965 -0.83899999 0.41
-0.052999999 13.252 -0.86199999 0.38999999
-0.093000002 13.064 -0.847 0.2
-0.219 13.232 -0.861 0.31
-0.28299999 13.345 -0.87 0.15000001
-0.32699999 13.396 -0.87400001 0.37
-0.37 13.456 -0.87900001 0.36000001
-0.41499999 13.535 -0.88499999 0.54000002
-0.45899999 13.587 -0.88999999 0
-0.713 13.975 -0.92199999 0.23999999
-0.75700003 13.973 -0.92199999 0.37
-0.93300003 14.312 -0.94999999 0.36000001
-0.98199999 14.379 -0.95499998 0.38999999
-1.033 14.449 -0.96100003 0.37
-1.084 14.525 -0.96700001 0.34999999
-1.113 14.603 -0.97399998 0.34999999
-1.163 14.663 -0.97899997 0.36000001
-1.216 14.745 -0.986 0.34
-1.27 14.826 -0.99299997 0.34999999
-1.323 14.902 -0.99900001 0.37
-1.377 14.979 -1.006 0.33000001
-1.432 15.052 -1.012 0.34999999
-1.464 15.145 -1.02 0.31
-1.52 15.224 -1.026 0.36000001
-1.577 15.31 -1.034 0.46000001
-1.633 15.382 -1.04 0.30000001
-1.692 15.47 -1.0470001 0.36000001
-1.749 15.54 -1.054 0.28999999
-1.808 15.626 -1.061 0.30000001
-1.8430001 15.714 -1.068 0.38
-1.904 15.803 -1.076 0.28999999
-1.965 15.894 -1.084 0.46000001
-2.0699999 15.917 -1.087 0.64999998
-2.138 16.055 -1.098 0.2
-2.214 16.238001 -1.114 0.38999999
-2.253 16.333 -1.122 0.34999999
-2.3210001 16.440001 -1.131 0.33000001
-2.385 16.521999 -1.138 0.34
-2.4519999 16.618999 -1.147 0.34999999
-3.9230001 22.903999 -1.663 0.25
-4.5089998 22.481001 -1.6390001 0.38999999
-5.0669999 21.548 -1.575 0.23999999
-5.21 21.851999 -1.601 0.18000001
-5.276 21.973 -1.612 0.28
-5.3379998 21.927999 -1.61 0.31999999
-5.3909998 21.849001 -1.604 0.40000001
-5.4349999 21.729 -1.596 0.25999999
-5.4840002 21.636999 -1.59 0.31999999
-5.5450001 21.594 -1.5880001 0.38999999
-5.6160002 21.587999 -1.589 0.28999999
-5.6550002 21.599001 -1.59 0.44999999
-5.723 21.583 -1.59 0.36000001
-5.8470001 21.773001 -1.608 0.31999999
-19.438 14.788 -1.7589999 0.49000001
-19.540001 14.769 -1.7640001 0.51999998
-19.496 14.64 -1.755 0.15000001
-18.806999 14.029 -1.681 0.38
-18.693001 13.898 -1.668 0.18000001
-18.572001 13.717 -1.651 0.54000002
-18.445999 13.535 -1.635 0.25
-18.264999 13.313 -1.612 0.27000001
-18.125999 13.125 -1.594 0.33000001
-18.112 13.028 -1.589 0.25999999
-18.018 12.875 -1.576 0.36000001
-17.903999 12.75 -1.562 0.23999999
-17.804001 12.595 -1.549 0.30000001
-17.712999 12.447 -1.536 0.28999999
-17.628 12.304 -1.524 0.31999999
-17.521999 12.149 -1.51 0.28
-17.441999 12.012 -1.498 0.37
-17.353001 11.871 -1.4859999 0.23999999
-17.226 11.743 -1.472 0.33000001
-17.162001 11.621 -1.462 0.31999999
-17.054001 11.47 -1.448 0.25999999
-17.077 11.407 -1.447 0.41999999
-16.950001 11.245 -1.431 0
-13.102 5.4889998 -0.93800002 0.41
-13.084 5.4330001 -0.935 0.34
-13.033 5.3639998 -0.93000001 0.46000001
-12.992 5.2989998 -0.92500001 0.43000001
-12.959 5.2379999 -0.92000002 0.43000001
-12.93 5.2030001 -0.917 0.37
-12.867 5.1300001 -0.91000003 0.44999999
-12.844 5.0739999 -0.90700001 0.37
-12.804 5.0120001 -0.90200001 0.46000001
-12.768 4.9510002 -0.898 0.36000001
-12.724 4.888 -0.89200002 0.47999999
-12.7 4.8330002 -0.889 0.37
-12.645 4.789 -0.884 0.47
-12.618 4.7340002 -0.88 0.36000001
-12.572 4.671 -0.875 0.50999999
-12.547 4.6170001 -0.87099999 0.34999999
-12.502 4.5560002 -0.866 0.44999999
-12.475 4.5019999 -0.86299998 0.36000001
-12.417 4.4369998 -0.85699999 0.50999999
-12.389 4.4039998 -0.85399997 0.36000001
-12.357 4.3499999 -0.85000002 0.47
-12.309 4.289 -0.84500003 0.43000001
-12.277 4.2350001 -0.84100002 0.44
-12.262 4.1859999 -0.838 0.37
-12.207 4.125 -0.833 0.55000001
-12.186 4.0749998 -0.82999998 0.34
-12.136 4.0370002 -0.82499999 0.47999999
-12.11 3.9860001 -0.82200003 0.34999999
-12.072 3.931 -0.81699997 0.47999999
-12.052 3.8829999 -0.815 0.44
-12.009 3.8269999 -0.81 0.34
-11.964 3.7709999 -0.80500001 0.44999999
-11.955 3.7479999 -0.80400002 0.34999999
-11.913 3.6930001 -0.79900002 0.46000001
-11.871 3.6400001 -0.79500002 0.44
-11.852 3.5929999 -0.792 0.43000001
-11.804 3.5380001 -0.787 0.43000001
-11.785 3.4920001 -0.78500003 0.34999999
-11.748 3.4400001 -0.78100002 0.44999999
-11.696 3.405 -0.77600002 0.41999999
-11.68 3.3610001 -0.77399999 0.41999999
-11.652 3.313 -0.77100003 0.43000001
-11.618 3.2639999 -0.76700002 0.41
-11.598 3.2190001 -0.764 0.40000001
-11.571 3.1719999 -0.76099998 0.43000001
-11.531 3.122 -0.75700003 0.40000001
-11.505 3.096 -0.755 0.40000001
-11.474 3.049 -0.75099999 0.38999999
-11.438 3 -0.74699998 0.40000001
-11.406 2.954 -0.74400002 0.40000001
-11.383 2.9089999 -0.741 0.41
-11.353 2.8640001 -0.73799998 0.40000001
-11.329 2.8199999 -0.73500001 0.46000001
-11.316 2.7980001 -0.73400003 0.28
-11.257 2.7460001 -0.72799999 0.47999999
-11.252 2.707 -0.727 0.30000001
-11.222 2.6619999 -0.72399998 0.47999999
-11.186 2.6159999 -0.72000003 0.36000001
-11.157 2.573 -0.71700001 0.44999999
-11.146 2.533 -0.71600002 0.38
-11.109 2.506 -0.71200001 0.38999999
-11.08 2.4630001 -0.70899999 0.44
-11.054 2.421 -0.70700002 0.34999999
-11.019 2.3770001 -0.70300001 0.44999999
-11.009 2.3380001 -0.70200002 0.33000001
-10.977 2.296 -0.699 0.43000001
-10.945 2.253 -0.69499999 0.36000001
-10.912 2.2279999 -0.69199997 0.44
-10.899 2.1900001 -0.69099998 0.40000001
-10.867 2.148 -0.68699998 0.38999999
-10.848 2.109 -0.685 0.38999999
-10.813 2.0669999 -0.68199998 0.40000001
-10.794 2.0280001 -0.68000001 0.40000001
-10.753 2.0020001 -0.676 0.38999999
-10.745 1.966 -0.67500001 0.38999999
-10.716 1.926 -0.67199999 0.38
-10.689 1.886 -0.67000002 0.44
-10.687 1.851 -0.66900003 0.36000001
-10.637 1.808 -0.66399997 0.37
-10.619 1.771 -0.66299999 0.43000001
-10.595 1.749 -0.66000003 0.36000001
-10.563 1.71 -0.65700001 0.41
-10.538 1.6720001 -0.65499997 0.36000001
-10.522 1.635 -0.653 0.41
-10.492 1.597 -0.64999998 0.38999999
-10.475 1.561 -0.648 0.38
-10.464 1.525 -0.64700001 0.38999999
-10.427 1.503 -0.64399999 0.38
-10.406 1.467 -0.64200002 0.38
-10.381 1.4299999 -0.639 0.36000001
-10.354 1.393 -0.63700002 0.36000001
-10.336 1.357 -0.63499999 0.36000001
-10.307 1.321 -0.63200003 0.36000001
-10.293 1.286 -0.63099998 0.38
-10.277 1.268 -0.63 0.38999999
-10.24 1.23 -0.62599999 0.37
-10.212 1.194 -0.62400001 0.33000001
-10.206 1.161 -0.62300003 0.38999999
-10.18 1.126 -0.62 0.38
-10.157 1.091 -0.61799997 0.34999999
-10.143 1.057 -0.61699998 0.38
-10.119 1.038 -0.61500001 0.40000001
-10.094 1.0039999 -0.61299998 0.33000001
-10.071 0.96899998 -0.611 0.34
-10.063 0.93699998 -0.61000001 0.37
-10.026 0.90100002 -0.60600001 0.36000001
-10.009 0.86799997 -0.60500002 0.36000001
-9.9799995 0.83399999 -0.602 0.36000001
-9.9589996 0.81599998 -0.60000002 0.34999999
-9.9560003 0.78500003 -0.60000002 0.36000001
-9.9160004 0.75 -0.597 0.34999999
-9.9029999 0.71799999 -0.59500003 0.34999999
-9.8830004 0.685 -0.59399998 0.34
-9.8529997 0.65200001 -0.59100002 0.33000001
-9.8380003 0.63499999 -0.58999997 0.34
-9.8120003 0.602 -0.58700001 0.33000001
-9.7919998 0.56999999 -0.58600003 0.33000001
-9.7799997 0.53899997 -0.58499998 0.37
-9.7600002 0.50700003 -0.583 0.31999999
-9.2679996 0.45100001 -0.54299998 0.44
-9.2309999 0.41999999 -0.54000002 0.22
-9.2159996 0.405 -0.53899997 0.16
-9.165 0.373 -0.53500003 0.38999999
-9.1689997 0.345 -0.53500003 0.18000001
-9.1459999 0.315 -0.53299999 0.34999999
-9.151 0.28600001 -0.53299999 0.19
-9.1020002 0.25600001 -0.52899998 0.23999999
-9.4020004 0.221 -0.55299997 0.2
-9.5360003 0.19499999 -0.56400001 0.31999999
-9.5380001 0.16500001 -0.56400001 0.34
-9.5030003 0.134 -0.56099999 0.31999999
-9.4829998 0.119 -0.56 0.33000001
-9.4720001 0.089000002 -0.55900002 0.34
-9.4540005 0.059 -0.55699998 0.31
-9.4440002 0.028999999 -0.55599999 0.34
-9.4259996 -0.001 -0.55500001 0.33000001
-9.4440002 -0.029999999 -0.55599999 0.30000001
-9.4980001 -0.045000002 -0.56099999 0.30000001
-9.5439997 -0.075000003 -0.56400001 0.30000001
-9.5810003 -0.105 -0.56699997 0.28
-9.6409998 -0.13600001 -0.57200003 0.34
-9.684 -0.167 -0.57599998 0.30000001
-9.7410002 -0.199 -0.57999998 0.22
-9.7840004 -0.23 -0.58399999 0.47999999
-9.7419996 -0.245 -0.58099997 0.25
-9.7329998 -0.27500001 -0.57999998 0.34999999
-9.7320004 -0.30599999 -0.57999998 0.46000001
-9.7670002 -0.33700001 -0.583 0.25
-10.035 -0.377 -0.60399997 0.31999999
-10.1 -0.41100001 -0.61000001 0.31999999
-10.156 -0.44600001 -0.61400002 0.34
-10.205 -0.46399999 -0.61799997 0.31999999
-10.251 -0.498 -0.62199998 0.34
-10.314 -0.53299999 -0.62699997 0.36000001
-10.372 -0.56900001 -0.63200003 0.36000001
-10.412 -0.60399997 -0.63499999 0.36000001
-10.473 -0.63999999 -0.64099997 0.34
-10.54 -0.66100001 -0.64600003 0.40000001
-10.586 -0.69700003 -0.64999998 0.36000001
-10.645 -0.73400003 -0.65499997 0.34
-10.712 -0.77200001 -0.66000003 0.38999999
-10.769 -0.81 -0.66500002 0.38
-10.834 -0.84899998 -0.671 0.38999999
-10.893 -0.88800001 -0.676 0.40000001
-10.946 -0.91000003 -0.68000001 0.34999999
-11.014 -0.94999999 -0.68599999 0.37
-11.081 -0.991 -0.69099998 0.38
-11.139 -1.031 -0.69599998 0.38
-11.199 -1.072 -0.70099998 0.38999999
-11.277 -1.115 -0.708 0.41
-11.349 -1.158 -0.71399999 0.34
-11.393 -1.1799999 -0.71799999 0.43000001
-11.474 -1.225 -0.72500002 0.34999999
-11.552 -1.27 -0.73100001 0.44999999
-11.605 -1.313 -0.736 0.36000001
-11.674 -1.357 -0.74199998 0.44999999
-11.759 -1.404 -0.74900001 0.37
-11.832 -1.451 -0.755 0.40000001
-11.895 -1.477 -0.75999999 0.47999999
-11.993 -1.527 -0.76899999 0.30000001
-12.041 -1.572 -0.773 0.50999999
-12.133 -1.623 -0.78100002 0.31999999
-12.199 -1.67 -0.787 0.54000002
-12.267 -1.719 -0.79299998 0.31
-12.279 -1.76 -0.79400003 0.52999997
-12.271 -1.778 -0.79400003 0.38999999
-12.245 -1.814 -0.792 0.54000002
-12.348 -1.868 -0.801 0.33000001
-12.425 -1.92 -0.80699998 0.5
-12.513 -1.974 -0.815 0.30000001
-12.596 -2.027 -0.82200003 0.49000001
-12.703 -2.0639999 -0.83099997 0.31
-12.771 -2.1170001 -0.83700001 0.50999999
-12.876 -2.175 -0.84600002 0.31999999
-12.96 -2.2309999 -0.85399997 0.50999999
-13.049 -2.289 -0.86199999 0.31
-13.148 -2.348 -0.87 0.50999999
-13.262 -2.411 -0.88 0.33000001
-13.325 -2.444 -0.88599998 0.44999999
-13.425 -2.506 -0.89399999 0.44
-13.536 -2.5710001 -0.90399998 0.40000001
-13.505 -2.609 -0.90200001 0.70999998
-14.422 -2.8310001 -0.97799999 0.18000001
-14.397 -2.8729999 -0.977 0.75999999
-14.474 -2.9360001 -0.98400003 0.43000001
-14.614 -2.9879999 -0.99599999 0.23
-14.695 -3.052 -1.003 0.70999998
-14.745 -3.1110001 -1.008 0.38999999
-14.704 -3.151 -1.005 0.31
-14.693 -3.197 -1.005 0.44999999
-14.688 -3.244 -1.006 0.25
-14.732 -3.302 -1.01 0.34
-14.768 -3.335 -1.0140001 0.31
-14.812 -3.3929999 -1.018 0.47999999
-14.933 -3.47 -1.029 0.31999999
-15.037 -3.5439999 -1.038 0
-15.466 -3.7980001 -1.077 0.25999999
-15.589 -3.855 -1.087 0.27000001
-15.72 -3.9389999 -1.099 0.25
-15.884 -4.033 -1.114 0.38
-16.030001 -4.1230001 -1.127 0.40000001
-16.457001 -4.2870002 -1.163 0.23
-16.663 -4.3969998 -1.181 0.28999999
-16.809999 -4.4640002 -1.194 0.34
-16.955999 -4.559 -1.2079999 0.30000001
-17.128 -4.6630001 -1.223 0.28999999
-17.299999 -4.7680001 -1.239 0.30000001
-17.445999 -4.8670001 -1.252 0.28
-17.629999 -4.9780002 -1.2690001 0.34999999
-17.795 -5.0840001 -1.284 0.27000001
-17.959 -5.1620002 -1.298 0.31999999
-18.139999 -5.2750001 -1.3150001 0.28999999
-18.337999 -5.395 -1.3329999 0.34
-18.503 -5.506 -1.348 0.28999999
-18.622999 -5.605 -1.359 0.18000001
-18.605 -5.664 -1.359 0.50999999
-18.631001 -5.7360001 -1.363 0
-2.658 -15 -1.021 0.1
-2.6289999 -14.975 -1.0190001 0.17
-2.575 -14.942 -1.015 0
-2.5350001 -14.993 -1.0190001 0
-2.4949999 -15.046 -1.022 0
-2.4560001 -15.103 -1.026 0
-2.4189999 -15.176 -1.0319999 0
-2.3640001 -15.291 -1.04 0.13
-2.316 -15.3 -1.04 0
-2.2650001 -15.288 -1.039 0
-2.283 -15.745 -1.075 0
-2.243 -15.815 -1.08 0.07
-2.2309999 -15.909 -1.0880001 0
-2.1860001 -15.956 -1.091 0
-2.1429999 -16.016001 -1.095 0.12
-2.1040001 -16.104 -1.102 0
-2.0569999 -16.139999 -1.104 0
-2.013 -16.198999 -1.109 0.11
-1.541 -12.939 -0.84399998 0.38
-1.4809999 -12.782 -0.83099997 0
-1.6569999 -14.672 -0.98299998 0
-1.602 -14.6 -0.977 0
-1.536 -14.416 -0.96200001 0
-1.49 -14.413 -0.96100003 0
-1.4450001 -14.418 -0.96100003 0.1
-1.423 -14.43 -0.96200001 0.23999999
-1.378 -14.436 -0.96200001 0.27000001
-1.327 -14.379 -0.95700002 0
-1.288 -14.449 -0.963 0
-1.249 -14.536 -0.96899998 0
-1.212 -14.637 -0.977 0
-1.166 -14.647 -0.97799999 0
-1.164 -16.188999 -1.101 0
-1.1109999 -16.164 -1.099 0.039999999
-0.963 -14.724 -0.98299998 0.14
-0.89399999 -14.37 -0.954 0.25
-0.86799997 -14.318 -0.94999999 0.18000001
-0.824 -14.333 -0.95099998 0.50999999
-0.77899998 -14.337 -0.95099998 0.20999999
-0.73699999 -14.401 -0.95599997 0.25
-0.69999999 -14.559 -0.96799999 0
-0.57999998 -14.44 -0.958 0.41
-0.54699999 -14.753 -0.98299998 0
-0.62800002 -18.305 -1.268 0
-0.38499999 -15.64 -1.054 0.47999999
-0.336 -15.663 -1.056 0.28999999
0.491 -18.193001 -1.2589999 0
0.54799998 -18.177999 -1.258 0
0.60500002 -18.158001 -1.257 0
0.63200003 -18.132999 -1.255 0
0.68900001 -18.118999 -1.2539999 0
0.74699998 -18.143 -1.256 0
0.80299997 -18.115999 -1.2539999 0
0.86000001 -18.122 -1.2539999 0
0.917 -18.111 -1.2539999 0
0.972 -18.084 -1.252 0
1.001 -18.094999 -1.253 0
1.057 -18.075001 -1.252 0
1.113 -18.062 -1.251 0
1.17 -18.051001 -1.25 0
1.226 -18.041 -1.25 0
1.281 -18.017 -1.248 0.039999999
1.345 -17.722 -1.225 0
1.413 -17.881001 -1.238 0
1.477 -17.976 -1.2460001 0.039999999
1.525 -17.870001 -1.238 0.11
1.5829999 -17.886999 -1.24 0.34
1.646 -17.959 -1.2460001 0.2
1.682 -18.042 -1.253 0.090000004
3 8.2980003 -0.55699998 0.34
2.9820001 8.3310003 -0.56 0.41
2.971 8.382 -0.56300002 0.38
2.964 8.4040003 -0.565 0.36000001
2.9449999 8.4359999 -0.56699997 0.37
2.8840001 8.3430004 -0.55800003 0.37
2.872 8.3950005 -0.56199998 0.16
2.836 8.3760004 -0.55900002 0.25
2.809 8.3830004 -0.55900002 0.31999999
2.8399999 8.6099997 -0.57800001 0.38
2.8099999 8.6120005 -0.57800001 0.43000001
2.796 8.6619997 -0.58099997 0.38999999
2.78 8.7049999 -0.58499998 0.27000001
2.7579999 8.7309999 -0.58600003 0.41999999
2.7360001 8.7589998 -0.588 0.38999999
2.7179999 8.7959995 -0.58999997 0.34
2.7079999 8.8129997 -0.59200001 0.41
2.6889999 8.8500004 -0.59399998 0.34
2.6659999 8.8760004 -0.59600002 0.44999999
2.6440001 8.9049997 -0.59799999 0.36000001
2.625 8.9420004 -0.60000002 0.43000001
2.605 8.9809999 -0.60299999 0.36000001
2.5810001 9.0030003 -0.60399997 0.43000001
2.5739999 9.0340004 -0.60600001 0.34999999
2.55 9.0550003 -0.60799998 0.43000001
2.5320001 9.1009998 -0.611 0.36000001
2.507 9.1230001 -0.61199999 0.43000001
2.4849999 9.1560001 -0.61400002 0.36000001
2.4619999 9.1870003 -0.61699998 0.44
2.457 9.2250004 -0.62 0.36000001
2.4330001 9.2539997 -0.62199998 0.37
2.4089999 9.2810001 -0.62300003 0.37
2.3870001 9.3149996 -0.62599999 0.37
2.365 9.3500004 -0.62800002 0.37
2.3429999 9.3879995 -0.63099998 0.37
2.3199999 9.4230003 -0.63300002 0.38
2.3099999 9.448 -0.63499999 0.38999999
2.286 9.4779997 -0.63700002 0.38999999
2.2620001 9.5089998 -0.639 0.41
2.2379999 9.5410004 -0.64099997 0.40000001
2.214 9.5769997 -0.64399999 0.40000001
2.1889999 9.6049995 -0.64600003 0.41
2.168 9.651 -0.64899999 0.41999999
2.1559999 9.6719999 -0.65100002 0.41
2.1329999 9.7139997 -0.65399998 0.41
2.1070001 9.7399998 -0.65600002 0.41
2.0829999 9.7790003 -0.65899998 0.31999999
2.059 9.8170004 -0.66100001 0.43000001
2.0350001 9.8570004 -0.66399997 0.34999999
2.01 9.8920002 -0.667 0.44999999
2.0009999 9.927 -0.66900003 0.33000001
1.974 9.9549999 -0.671 0.43000001
1.948 9.9919996 -0.67400002 0.34
1.923 10.031 -0.67699999 0.44999999
1.897 10.067 -0.68000001 0.34999999
1.869 10.092 -0.68099999 0.44
1.847 10.151 -0.68599999 0.34999999
1.834 10.17 -0.68699998 0.46000001
1.809 10.215 -0.69099998 0.36000001
1.781 10.244 -0.69300002 0.46000001
1.755 10.287 -0.69599998 0.37
1.726 10.312 -0.69800001 0.46000001
1.7 10.359 -0.70099998 0.38
1.6900001 10.401 -0.70499998 0.38999999
1.661 10.431 -0.70700002 0.47
1.635 10.48 -0.71100003 0.28999999
1.6059999 10.513 -0.713 0.5
1.58 10.563 -0.71700001 0.28999999
1.55 10.592 -0.71899998 0.49000001
1.523 10.642 -0.72299999 0.28999999
1.51 10.668 -0.72500002 0.50999999
1.4809999 10.71 -0.72799999 0.31
1.452 10.746 -0.73100001 0.5
1.426 10.808 -0.736 0.31
1.3940001 10.832 -0.73799998 0.52999997
1.367 10.892 -0.74299997 0.31999999
1.335 10.914 -0.74400002 0.51999998
1.324 10.969 -0.74900001 0.30000001
1.291 10.983 -0.75 0.52999997
1.262 11.037 -0.75400001 0.31999999
1.232 11.086 -0.75800002 0.52999997
1.202 11.136 -0.76200002 0.31
1.17 11.173 -0.76499999 0.54000002
1.141 11.23 -0.76899999 0.31999999
1.125 11.248 -0.77100003 0.51999998
1.095 11.317 -0.77600002 0.30000001
1.062 11.342 -0.778 0.5
1.031 11.401 -0.78299999 0.31999999
0.99699998 11.43 -0.78500003 0.5
0.96600002 11.483 -0.79000002 0.36000001
0.95099998 11.522 -0.79299998 0.46000001
0.91799998 11.575 -0.79699999 0.30000001
0.884 11.607 -0.80000001 0.47999999
0.852 11.666 -0.80400002 0.30000001
0.81699997 11.704 -0.80800003 0.52999997
0.78399998 11.758 -0.81199998 0.28999999
0.74900001 11.796 -0.815 0.47999999
0.73400003 11.855 -0.81999999 0.37
0.699 11.895 -0.82300001 0.38999999
0.66500002 11.959 -0.829 0.41
0.63 12.009 -0.833 0.44
0.59399998 12.051 -0.83600003 0.46000001
0.55699998 12.086 -0.83899999 0.40000001
0.52100003 12.132 -0.84299999 0.33000001
0.50400001 12.172 -0.84600002 0.5
0.46700001 12.212 -0.85000002 0.30000001
0.43000001 12.255 -0.85299999 0.47
0.39300001 12.318 -0.85799998 0.25
0.35600001 12.355 -0.86199999 0.49000001
0.31799999 12.398 -0.86500001 0.5
0.184 12.63 -0.88499999 0.38
0.145 12.68 -0.889 0.38999999
0.105 12.724 -0.89300001 0.41999999
0.066 12.792 -0.89899999 0.34999999
0.025 12.836 -0.90200001 0.46000001
0.0049999999 12.892 -0.90700001 0.36000001
-0.035999998 12.964 -0.91299999 0.25999999
-0.077 13.016 -0.91799998 0.56999999
-0.118 13.051 -0.921 0.14
-0.22400001 13.227 -0.93599999 0.14
-0.31099999 13.391 -0.94999999 0.30000001
-0.35499999 13.444 -0.95499998 0.38
-0.39899999 13.498 -0.95999998 0.43000001
-0.44299999 13.563 -0.96600002 0.28999999
-0.48899999 13.639 -0.972 0.55000001
-0.523 13.947 -0.99900001 0
-0.55800003 13.744 -0.98100001 0
-0.79400003 14.091 -1.012 0.51999998
-0.96899998 14.366 -1.0369999 0.31
-1.0190001 14.437 -1.043 0.41
-1.071 14.513 -1.05 0.44
-1.122 14.585 -1.056 0.33000001
-1.151 14.656 -1.063 0.43000001
-1.205 14.74 -1.0700001 0.34999999
-1.2589999 14.826 -1.0779999 0.34
-1.312 14.901 -1.085 0.41
-1.3660001 14.974 -1.092 0.40000001
-1.42 15.039 -1.098 0.40000001
-1.476 15.124 -1.105 0.44
-1.507 15.195 -1.112 0.37
-1.564 15.273 -1.119 0.38999999
-1.622 15.367 -1.127 0.37
-1.679 15.438 -1.1339999 0.43000001
-1.737 15.517 -1.141 0.38
-1.7970001 15.613 -1.15 0.36000001
-1.8559999 15.684 -1.1569999 0.34
-1.892 15.78 -1.165 0.31999999
-1.956 15.889 -1.175 0.47
-2.013 15.938 -1.1799999 0.23
-2.0539999 15.858 -1.174 0.58999997
-2.1070001 15.876 -1.176 0.19
-2.2049999 16.218 -1.206 0.38
-2.2690001 16.308001 -1.214 0.36000001
-2.3110001 16.419001 -1.224 0.38999999
-2.3740001 16.49 -1.2309999 0.33000001
-2.4430001 16.594999 -1.2410001 0.38999999
-5.073 21.535 -1.701 0.18000001
-5.3260002 21.987 -1.744 0.30000001
-5.348 21.927999 -1.739 0.5
-5.3829999 21.774 -1.727 0.25999999
-5.4239998 21.648001 -1.7180001 0.41
-5.4239998 21.365 -1.694 0.23999999
-5.539 21.533001 -1.71 0.2
-5.6259999 21.591 -1.717 0.27000001
-5.6599998 21.582001 -1.717 0.46000001
-5.73 21.570999 -1.7180001 0.38
-5.9349999 21.791 -1.7410001 0.44999999
-19.482 14.707 -1.897 0.46000001
-18.844999 14.135 -1.824 0.18000001
-18.789 14 -1.813 0.61000001
-18.740999 13.874 -1.804 0.17
-18.608999 13.731 -1.7869999 0.47999999
-18.441 13.518 -1.765 0.27000001
-18.318001 13.34 -1.747 0.20999999
-18.117001 13.107 -1.721 0.44
-18.124001 13.026 -1.7180001 0.27000001
-18.030001 12.873 -1.704 0.28
-17.941 12.724 -1.6900001 0.33000001
-17.820999 12.597 -1.675 0.34
-17.725 12.446 -1.661 0.33000001
-17.615999 12.288 -1.645 0.23999999
-17.524 12.142 -1.632 0.30000001
-17.448 12.009 -1.62 0.38999999
-17.358 11.867 -1.607 0.31
-17.257999 11.759 -1.594 0.31999999
-17.152 11.609 -1.579 0.25
-17.063 11.47 -1.566 0.34
-17.315001 11.56 -1.589 0
-13.241 5.8319998 -1.043 0
-13.17 5.7509999 -1.034 0
-12.947 5.2950001 -1.001 0.30000001
-12.908 5.2319999 -0.99599999 0.38999999
-12.873 5.171 -0.99199998 0.31999999
-12.831 5.131 -0.98699999 0.38
-12.786 5.066 -0.98100001 0.38
-12.768 5.013 -0.97799999 0.34
-12.717 4.947 -0.972 0.37
-12.671 4.8839998 -0.96600002 0.46000001
-12.647 4.829 -0.963 0.38
-12.623 4.7750001 -0.95899999 0.31999999
-12.588 4.7389998 -0.95499998 0.37
-12.593 4.6960001 -0.954 0.27000001
-12.558 4.6370001 -0.94999999 0.44999999
-12.527 4.5819998 -0.94599998 0.38
-12.508 4.5300002 -0.94300002 0.41
-12.467 4.4710002 -0.93800002 0.44
-12.418 4.4320002 -0.93199998 0.41999999
-12.398 4.381 -0.92900002 0.43000001
-12.352 4.3210001 -0.92400002 0.44999999
-12.307 4.2620001 -0.91900003 0.46000001
-12.284 4.211 -0.91500002 0.43000001
-12.248 4.1560001 -0.91100001 0.47999999
-12.205 4.099 -0.90600002 0.44
-12.175 4.0679998 -0.90200001 0.47
-12.144 4.0149999 -0.89899999 0.47999999
-12.1 3.9579999 -0.89300001 0.49000001
-12.084 3.911 -0.89099997 0.5
-12.047 3.8570001 -0.88599998 0.47999999
-12.011 3.8050001 -0.88200003 0.49000001
-11.993 3.757 -0.87900001 0.47999999
-11.947 3.723 -0.875 0.44999999
-11.915 3.6719999 -0.87099999 0.46000001
-11.89 3.6229999 -0.86799997 0.46000001
-11.848 3.5699999 -0.86299998 0.47999999
-11.815 3.52 -0.85900003 0.47
-11.798 3.474 -0.85600001 0.47
-11.759 3.4230001 -0.852 0.49000001
-11.722 3.392 -0.84799999 0.44999999
-11.702 3.3469999 -0.84500003 0.46000001
-11.657 3.2939999 -0.83999997 0.44
-11.63 3.2479999 -0.83700001 0.44999999
-11.606 3.201 -0.83399999 0.44999999
-11.57 3.1530001 -0.82999998 0.44999999
-11.537 3.105 -0.82599998 0.46000001
-11.521 3.0810001 -0.824 0.46000001
-11.473 3.03 -0.81900001 0.43000001
-11.446 2.984 -0.81599998 0.43000001
-11.434 2.9430001 -0.81400001 0.44
-11.395 2.895 -0.81 0.43000001
-11.367 2.8499999 -0.80599999 0.44
-11.341 2.806 -0.80299997 0.44
-11.299 2.776 -0.79900002 0.43000001
-11.282 2.7349999 -0.79699999 0.43000001
-11.268 2.694 -0.79500002 0.43000001
-11.235 2.6489999 -0.79100001 0.43000001
-11.199 2.6029999 -0.787 0.43000001
-11.186 2.563 -0.78500003 0.43000001
-11.151 2.5369999 -0.78200001 0.46000001
-11.12 2.493 -0.77899998 0.43000001
-11.087 2.4489999 -0.77499998 0.56999999
-11.065 2.408 -0.77200001 0.40000001
-11.037 2.3659999 -0.76899999 0.56999999
-11.025 2.3269999 -0.76800001 0.38999999
-10.978 2.2820001 -0.76300001 0.56
-10.96 2.26 -0.76099998 0.38999999
-10.94 2.22 -0.759 0.43000001
-10.894 2.175 -0.75400001 0.56
-10.887 2.138 -0.75300002 0.40000001
-10.843 2.0940001 -0.74800003 0.51999998
-10.834 2.0569999 -0.74699998 0.38999999
-10.818 2.0190001 -0.745 0.41
-10.784 1.9960001 -0.74199998 0.41
-10.757 1.956 -0.73900002 0.54000002
-10.738 1.9170001 -0.73699999 0.37
-10.704 1.877 -0.73299998 0.50999999
-10.687 1.839 -0.73100001 0.38
-10.661 1.8 -0.72799999 0.5
-10.647 1.7640001 -0.727 0.38
-10.602 1.739 -0.72299999 0.47999999
-10.588 1.7029999 -0.72100002 0.36000001
-10.562 1.665 -0.71799999 0.47999999
-10.551 1.6289999 -0.71700001 0.34999999
-10.511 1.589 -0.713 0.47999999
-10.492 1.553 -0.71100003 0.34999999
-10.46 1.5140001 -0.708 0.49000001
-10.448 1.4960001 -0.70599997 0.34999999
-10.417 1.4579999 -0.70300001 0.49000001
-10.396 1.4220001 -0.70099998 0.36000001
-10.357 1.3839999 -0.69700003 0.60000002
-10.36 1.351 -0.69700003 0.34
-10.326 1.314 -0.69400001 0.47999999
-10.316 1.28 -0.69300002 0.36000001
-10.279 1.2589999 -0.68900001 0.57999998
-10.273 1.225 -0.68800002 0.34
-10.225 1.187 -0.68400002 0.44999999
-10.217 1.154 -0.68300003 0.41999999
-10.201 1.119 -0.68099999 0.44
-10.184 1.085 -0.67900002 0.41
-10.15 1.066 -0.676 0.44
-10.126 1.031 -0.67400002 0.41999999
-10.107 0.99699998 -0.67199999 0.41
-10.093 0.96399999 -0.671 0.41999999
-10.07 0.93000001 -0.66799998 0.41999999
-10.043 0.89499998 -0.66600001 0.41
-10.024 0.86199999 -0.66399997 0.41
-10.001 0.84399998 -0.662 0.41
-9.9840002 0.81099999 -0.66000003 0.41999999
-9.9630003 0.778 -0.65799999 0.41
-9.9370003 0.745 -0.65600002 0.41
-9.9300003 0.713 -0.65499997 0.41
-9.8999996 0.68000001 -0.65200001 0.41
-9.3260002 0.59799999 -0.602 0.38
-9.3079996 0.56699997 -0.60100001 0.38
-9.2939997 0.537 -0.59899998 0.38
-9.2659998 0.50599998 -0.597 0.37
-9.2550001 0.491 -0.59600002 0.37
-9.2399998 0.461 -0.59399998 0.37
-9.2259998 0.43200001 -0.59299999 0.37
-9.2150002 0.40200001 -0.59200001 0.31999999
-9.2139997 0.373 -0.59200001 0.28999999
-9.1969995 0.34400001 -0.58999997 0.5
-9.2320004 0.33000001 -0.59299999 0.36000001
-9.2770004 0.303 -0.597 0.37
-9.3129997 0.27399999 -0.60000002 0.34
-9.3699999 0.24600001 -0.60500002 0.38999999
-9.4130001 0.21799999 -0.60799998 0.34999999
-9.5649996 0.191 -0.62099999 0.25
-9.5229998 0.16 -0.61799997 0.54000002
-9.5340004 0.145 -0.61900002 0.27000001
-9.5019999 0.115 -0.616 0.47999999
-9.4770002 0.085000001 -0.61400002 0.36000001
-9.4630003 0.055 -0.61199999 0.46000001
-9.4449997 0.026000001 -0.611 0.34999999
-9.4350004 -0.0040000002 -0.61000001 0.44999999
-9.4569998 -0.034000002 -0.61199999 0.38999999
-9.507 -0.048999999 -0.616 0.38
-9.5620003 -0.079999998 -0.62099999 0.38
-9.6040001 -0.11 -0.625 0.38
-9.6490002 -0.141 -0.62900001 0.40000001
-9.6870003 -0.17200001 -0.63200003 0.43000001
-9.7460003 -0.204 -0.63700002 0.34999999
-9.7930002 -0.221 -0.64099997 0.34
-9.757 -0.25 -0.63800001 0.38
-9.7639999 -0.28099999 -0.639 0.34999999
-9.7390003 -0.31099999 -0.63700002 0.63999999
-9.7819996 -0.34299999 -0.63999999 0.23
-10.069 -0.38600001 -0.66500002 0.5
-10.114 -0.419 -0.66900003 0.37
-10.173 -0.43799999 -0.67400002 0.38999999
-10.231 -0.47299999 -0.67900002 0.47
-10.297 -0.509 -0.685 0.28999999
-10.331 -0.54299998 -0.68800002 0.51999998
-10.399 -0.579 -0.69400001 0.30000001
-10.439 -0.61500001 -0.69800001 0.54000002
-10.499 -0.65100002 -0.70300001 0.34
-10.563 -0.67199999 -0.70899999 0.55000001
-10.627 -0.70999998 -0.71499997 0.33000001
-10.674 -0.74699998 -0.71899998 0.57999998
-10.759 -0.787 -0.72600001 0.33000001
-10.793 -0.824 -0.72899997 0.47999999
-10.875 -0.86500001 -0.73699999 0.36000001
-10.912 -0.90200001 -0.74000001 0.47999999
-10.984 -0.926 -0.74699998 0.34
-11.039 -0.96499997 -0.75199997 0.47999999
-11.115 -1.007 -0.75800002 0.38
-11.167 -1.048 -0.76300001 0.50999999
-11.241 -1.09 -0.76999998 0.34999999
-11.313 -1.133 -0.77600002 0.51999998
-11.381 -1.177 -0.78299999 0.38
-11.441 -1.201 -0.78799999 0.51999998
-11.522 -1.2460001 -0.79500002 0.40000001
-11.587 -1.29 -0.801 0.41
-11.641 -1.334 -0.80599999 0.55000001
-11.741 -1.383 -0.815 0.38
-11.792 -1.426 -0.81999999 0.43000001
-11.881 -1.456 -0.82800001 0.41
-11.963 -1.505 -0.83499998 0.41
-12.033 -1.552 -0.84200001 0.41
-12.096 -1.599 -0.84799999 0.41
-12.177 -1.649 -0.85500002 0.43000001
-12.243 -1.697 -0.86199999 0.41
-12.291 -1.743 -0.866 0.55000001
-12.288 -1.763 -0.866 0.47999999
-12.257 -1.7970001 -0.86400002 0.5
-12.307 -1.844 -0.86900002 0.44999999
-12.399 -1.898 -0.87699997 0.43000001
-12.48 -1.951 -0.88499999 0.41
-12.558 -2.0039999 -0.89200002 0.56
-12.658 -2.0610001 -0.90100002 0.40000001
-12.745 -2.096 -0.90899998 0.56
-12.841 -2.1530001 -0.91799998 0.37
-12.92 -2.2079999 -0.926 0.50999999
-13.023 -2.2679999 -0.935 0.38999999
-13.086 -2.322 -0.94199997 0.54000002
-13.15 -2.3759999 -0.94800001 0.50999999
-13.183 -2.425 -0.95099998 0.34999999
-13.268 -2.4619999 -0.95899999 0.23999999
-13.371 -2.5250001 -0.96899998 0.38
-13.455 -2.585 -0.977 0.41999999
-13.545 -2.6459999 -0.98500001 0.16
-14.445 -2.8710001 -1.0650001 0.49000001
-14.416 -2.9119999 -1.063 0.55000001
-14.55 -2.987 -1.076 0.44999999
-14.683 -3.039 -1.0880001 0.30000001
-14.711 -3.0929999 -1.091 0.56
-14.707 -3.1400001 -1.092 0.40000001
-14.699 -3.187 -1.092 0.34
-14.654 -3.2249999 -1.089 0.44999999
-14.684 -3.2809999 -1.092 0.33000001
-14.743 -3.3180001 -1.098 0.36000001
-14.76 -3.3710001 -1.1 0.41
-14.777 -3.4230001 -1.103 0.27000001
-14.936 -3.51 -1.118 0.54000002
-15.115 -3.6029999 -1.135 0.20999999
-15.552 -3.8369999 -1.176 0.28999999
-15.687 -3.9230001 -1.189 0.38999999
-15.81 -4.007 -1.201 0.38
-15.967 -4.0999999 -1.216 0.34
-16.205 -4.2160001 -1.238 0.33000001
-16.607 -4.3769999 -1.275 0.33000001
-16.749001 -4.4710002 -1.289 0.28
-16.914 -4.5440001 -1.3049999 0.28999999
-17.07 -4.6440001 -1.3200001 0.41999999
-17.236 -4.7470002 -1.336 0.28999999
-17.389999 -4.849 -1.351 0.31999999
-17.563999 -4.9569998 -1.368 0.31999999
-17.746 -5.0689998 -1.386 0.43000001
-17.862 -5.1630001 -1.397 0
-18.843 -5.7379999 -1.492 0
-2.539 -14.137 -1.034 0.19
-2.6429999 -14.997 -1.108 0.12
-2.586 -14.946 -1.103 0.23999999
-2.54 -14.962 -1.104 0
-2.4990001 -15.007 -1.107 0
-2.4619999 -15.078 -1.112 0
-2.4260001 -15.152 -1.118 0
-2.404 -15.172 -1.12 0.11
-2.368 -15.254 -1.126 0
-2.3210001 -15.267 -1.127 0
-1.513 -12.912 -0.917 0.49000001
-1.5039999 -13.203 -0.94099998 0
-1.5779999 -14.695 -1.069 0.090000004
-1.531 -14.694 -1.069 0.31
-1.482 -14.667 -1.066 0.25
-1.433 -14.407 -1.044 0.23
-1.388 -14.412 -1.044 0.22
-1.3430001 -14.424 -1.044 0.25999999
-1.293 -14.375 -1.04 0
-1.263 -14.553 -1.0549999 0
-1.22 -14.587 -1.057 0
-1.175 -14.611 -1.059 0
-1.118 -16.155001 -1.191 0.039999999
-0.97399998 -14.703 -1.066 0.19
-0.91799998 -14.545 -1.052 0.12
-0.86000001 -14.335 -1.034 0.27000001
-0.83700001 -14.342 -1.034 0.38999999
-0.79000002 -14.293 -1.03 0.30000001
-0.74000001 -14.202 -1.022 0
-0.70300001 -14.364 -1.035 0
-0.64600003 -15.182 -1.105 0.090000004
-0.59299999 -14.438 -1.041 0.13
-0.54699999 -14.426 -1.04 0.30000001
-0.51200002 -14.756 -1.068 0
-0.53200001 -16.969 -1.258 0.039999999
-0.345 -15.648 -1.145 0.63999999
0.50400001 -16.848 -1.248 0
0.55699998 -16.844 -1.248 0
0.61000001 -16.839001 -1.247 0
0.63599998 -16.83 -1.247 0
0.68800002 -16.808001 -1.245 0
0.74000001 -16.780001 -1.243 0
0.787 -16.67 -1.234 0.11
0.83899999 -16.663 -1.233 0.18000001
0.89499998 -16.719999 -1.238 0.41
0.92400002 -16.778 -1.244 0.19
0.98299998 -16.872999 -1.252 0.090000004
1.0420001 -16.965 -1.26 0.15000001
1.101 -17.042999 -1.267 0.090000004
1.1619999 -17.153 -1.277 0.16
1.222 -17.231001 -1.284 0.1
1.283 -17.326 -1.293 0.16
1.319 -17.427999 -1.301 0.16
1.38 -17.507 -1.309 0.1
1.4450001 -17.621 -1.319 0.15000001
1.5089999 -17.714001 -1.327 0.23
1.574 -17.813 -1.336 0.25
1.638 -17.899 -1.344 0.25999999
1.705 -18.000999 -1.353 0
1.744 -18.115 -1.363 0
3.0079999 8.1890001 -0.60100001 0.16
2.997 8.2379999 -0.60500002 0.12
2.967 8.2360001 -0.60399997 0.16
2.97 8.3260002 -0.61199999 0.14
2.9419999 8.3290005 -0.611 0.34
2.9349999 8.3929996 -0.616 0.12
2.9030001 8.3850002 -0.61500001 0.40000001
2.8889999 8.3879995 -0.61400002 0
2.8210001 8.276 -0.60299999 0.050000001
2.7920001 8.2779999 -0.602 0
2.7709999 8.3000002 -0.60299999 0.050000001
2.7939999 8.5459995 -0.625 0.28999999
2.779 8.5880003 -0.62900001 0.13
2.7690001 8.6040001 -0.63 0.34999999
2.767 8.6920004 -0.63800001 0.14
2.73 8.6709995 -0.63499999 0.38999999
2.7219999 8.7379999 -0.63999999 0.14
2.6889999 8.7309999 -0.639 0.40000001
2.678 8.7930002 -0.64399999 0.14
2.6619999 8.7880001 -0.64300001 0.40000001
2.6470001 8.8400002 -0.64700001 0.14
2.6199999 8.8500004 -0.64700001 0.41
2.6099999 8.9189997 -0.653 0.14
2.5780001 8.9119997 -0.65200001 0.41999999
2.566 8.9759998 -0.65700001 0.15000001
2.536 8.9779997 -0.65700001 0.41
2.5409999 9.0489998 -0.66299999 0.12
2.506 9.0340004 -0.66100001 0.43000001
2.4879999 9.0799999 -0.66399997 0.20999999
2.473 9.1359997 -0.66900003 0.13
2.438 9.1210003 -0.667 0.44
2.4200001 9.1709995 -0.671 0.23
2.404 9.224 -0.67500001 0.14
2.388 9.2220001 -0.67500001 0.44
2.3670001 9.2629995 -0.67799997 0.22
2.3510001 9.3199997 -0.68300003 0.14
2.3210001 9.3260002 -0.68199998 0.44999999
2.2980001 9.3559999 -0.685 0.23999999
2.2820001 9.4189997 -0.69 0.14
2.2509999 9.4189997 -0.68900001 0.44999999
2.244 9.4569998 -0.69199997 0.23999999
2.224 9.5050001 -0.69599998 0.14
2.197 9.5249996 -0.69800001 0.44999999
2.1789999 9.5810003 -0.70200002 0.22
2.1530001 9.6090002 -0.704 0.14
2.122 9.6099997 -0.704 0.46000001
2.098 9.6479998 -0.70700002 0.23999999
2.0899999 9.6820002 -0.70899999 0.25
2.0680001 9.7250004 -0.713 0.27000001
2.0450001 9.7690001 -0.71600002 0.25999999
2.0179999 9.7910004 -0.71799999 0.27000001
1.992 9.8240004 -0.72000003 0.27000001
1.9680001 9.8620005 -0.72299999 0.27000001
1.959 9.8979998 -0.72600001 0.28
1.934 9.9359999 -0.72899997 0.28
1.905 9.9549999 -0.73100001 0.28999999
1.882 10 -0.73400003 0.25999999
1.858 10.047 -0.73799998 0.27000001
1.834 10.094 -0.74199998 0.27000001
1.809 10.139 -0.74599999 0.28
1.7970001 10.164 -0.74800003 0.27000001
1.771 10.201 -0.75099999 0.28
1.745 10.241 -0.75400001 0.27000001
1.717 10.272 -0.75599998 0.28999999
1.692 10.319 -0.75999999 0.30000001
1.664 10.354 -0.76300001 0.28999999
1.6339999 10.377 -0.76499999 0.31
1.622 10.405 -0.76700002 0.28999999
1.595 10.447 -0.76999998 0.28999999
1.566 10.474 -0.77200001 0.28999999
1.539 10.52 -0.77600002 0.27000001
1.5140001 10.582 -0.78200001 0.16
1.4809999 10.589 -0.78200001 0.43000001
1.455 10.644 -0.787 0.23999999
1.446 10.702 -0.792 0.18000001
1.413 10.71 -0.792 0.41
1.386 10.77 -0.79699999 0.25
1.3559999 10.8 -0.80000001 0.25999999
1.3279999 10.854 -0.80400002 0.25999999
1.298 10.891 -0.80699998 0.28999999
1.285 10.927 -0.81 0.28999999
1.255 10.969 -0.81400001 0.28999999
1.226 11.024 -0.81900001 0.25999999
1.197 11.075 -0.82300001 0.25
1.1670001 11.126 -0.82700002 0.28
1.135 11.154 -0.82999998 0.28
1.105 11.205 -0.83399999 0.31999999
1.089 11.23 -0.83600003 0.31999999
1.057 11.266 -0.83899999 0.25999999
1.025 11.301 -0.84200001 0.25999999
0.991 11.326 -0.84399998 0.25999999
0.96100003 11.388 -0.84899998 0.28
0.92699999 11.411 -0.85100001 0.28
0.89600003 11.475 -0.85699999 0.16
0.87800002 11.485 -0.85799998 0.44999999
0.84600002 11.539 -0.86199999 0.25
0.815 11.609 -0.86900002 0.18000001
0.77999997 11.631 -0.87099999 0.38999999
0.74699998 11.686 -0.875 0.23999999
0.713 11.74 -0.88 0.25999999
0.68000001 11.803 -0.88599998 0.23
0.66500002 11.866 -0.89099997 0.30000001
0.62900001 11.9 -0.89399999 0.30000001
0.59399998 11.942 -0.898 0.25999999
0.55900002 11.997 -0.903 0.28999999
0.52399999 12.054 -0.90799999 0.28
0.48800001 12.104 -0.912 0.28
0.45199999 12.145 -0.91600001 0.28
0.435 12.202 -0.921 0.28999999
0.398 12.255 -0.926 0.22
0.35699999 12.18 -0.91900003 0
0.23 12.506 -0.949 0.41
0.192 12.558 -0.95300001 0.25
0.153 12.631 -0.95999998 0.25999999
0.114 12.669 -0.96399999 0.27000001
0.075000003 12.745 -0.97000003 0.25999999
0.035 12.815 -0.977 0.27000001
-0.0049999999 12.87 -0.98199999 0.28
-0.025 12.918 -0.986 0.19
-0.066 12.916 -0.986 0.17
-0.191 13.14 -1.007 0.15000001
-0.29800001 13.323 -1.024 0.23999999
-0.34099999 13.392 -1.03 0.27000001
-0.38499999 13.472 -1.038 0.38999999
-0.428 13.473 -1.038 0
-0.68099999 13.905 -1.079 0.19
-0.727 13.955 -1.0829999 0
-0.77200001 13.974 -1.085 0.1
-0.89899999 14.238 -1.11 0.25
-0.949 14.323 -1.118 0.30000001
-0.99900001 14.391 -1.125 0.31999999
-1.049 14.458 -1.131 0.25
-1.101 14.544 -1.14 0.34999999
-1.152 14.608 -1.146 0.27000001
-1.204 14.685 -1.153 0.25
-1.233 14.755 -1.16 0.30000001
-1.2869999 14.842 -1.168 0.31
-1.339 14.9 -1.174 0.28999999
-1.395 14.991 -1.183 0.31999999
-1.451 15.079 -1.191 0.31
-1.5039999 15.136 -1.197 0.31999999
-1.5599999 15.209 -1.204 0.30000001
-1.594 15.309 -1.214 0.28999999
-1.65 15.377 -1.22 0.31
-1.7079999 15.467 -1.229 0.31
-1.77 15.578 -1.24 0.30000001
-1.826 15.632 -1.2460001 0.28999999
-1.886 15.715 -1.2539999 0.27000001
-1.923 15.815 -1.263 0.33000001
-1.984 15.902 -1.272 0.28999999
-2.026 15.838 -1.267 0.13
-2.0669999 15.765 -1.26 0.54000002
-2.1559999 16.052 -1.288 0.17
-2.2349999 16.253 -1.307 0.30000001
-2.3 16.35 -1.317 0.34
-2.339 16.437 -1.325 0.28
-2.4059999 16.535999 -1.335 0.27000001
-2.473 16.631001 -1.344 0.28999999
-5.1659999 21.864 -1.864 0.28999999
-5.2509999 21.916 -1.87 0.2
-18.625 14.136 -1.948 0.25
-18.618 14.039 -1.942 0.34
-18.542999 13.891 -1.928 0.31999999
-18.594 13.839 -1.929 0.37
-18.614 13.763 -1.927 0.19
-18.485001 13.622 -1.909 0.46000001
-18.344999 13.43 -1.8890001 0.18000001
-18.197001 13.233 -1.867 0.36000001
-18.101 13.077 -1.851 0.18000001
-18.037001 12.944 -1.839 0.38
-17.948 12.795 -1.825 0.23
-17.844999 12.637 -1.809 0.25
-17.709 12.499 -1.791 0.2
-17.632 12.362 -1.778 0.16
-17.535999 12.212 -1.763 0.43000001
-17.448 12.069 -1.749 0.20999999
-17.35 11.92 -1.734 0.19
-17.26 11.779 -1.72 0.40000001
-17.169001 11.638 -1.705 0.18000001
-16.974001 11.466 -1.682 0
-12.745 5.0650001 -1.0599999 0.22
-12.704 5.0019999 -1.054 0.30000001
-12.675 4.9450002 -1.05 0.27000001
-12.637 4.8839998 -1.044 0.27000001
-12.615 4.8299999 -1.041 0.28
-12.566 4.7659998 -1.034 0.28
-12.531 4.7080002 -1.029 0.28999999
-12.497 4.6729999 -1.025 0.28999999
-12.447 4.6090002 -1.0190001 0.28
-12.413 4.552 -1.0140001 0.28999999
-12.386 4.4980001 -1.01 0.18000001
-12.319 4.4299998 -1.002 0.44
-12.294 4.3769999 -0.99800003 0.25
-12.291 4.3330002 -0.99699998 0.18000001
-12.228 4.289 -0.99000001 0.41
-12.19 4.2329998 -0.98500001 0.16
-12.162 4.1799998 -0.98100001 0.41999999
-12.115 4.1209998 -0.97500002 0.23999999
-12.092 4.0710001 -0.972 0.28
-12.054 4.0159998 -0.96700001 0.28999999
-12.029 3.9649999 -0.963 0.25999999
-11.967 3.924 -0.95700002 0.25
-11.96 3.8800001 -0.95499998 0.18000001
-11.919 3.825 -0.94999999 0.31999999
-11.922 3.7850001 -0.949 0.20999999
-11.895 3.7349999 -0.94499999 0.27000001
-11.867 3.6849999 -0.94099998 0.23
-11.841 3.6359999 -0.93800002 0.31999999
-11.814 3.608 -0.93400002 0.36000001
-11.768 3.553 -0.92900002 0.30000001
-11.741 3.5050001 -0.92500001 0.34
-11.727 3.461 -0.92299998 0.33000001
-11.673 3.405 -0.917 0.33000001
-11.659 3.3610001 -0.91399997 0.34
-11.635 3.3139999 -0.91100001 0.34
-11.59 3.2820001 -0.90600002 0.34999999
-11.558 3.233 -0.90200001 0.34
-11.559 3.194 -0.90100002 0.31999999
-11.507 3.141 -0.89499998 0.33000001
-11.479 3.0940001 -0.89200002 0.30000001
-11.463 3.052 -0.889 0.41
-11.414 3.0190001 -0.884 0.31
-11.387 2.974 -0.88099998 0.31999999
-11.37 2.931 -0.87800002 0.38999999
-11.33 2.8829999 -0.87400001 0.30000001
-11.301 2.8369999 -0.87 0.38
-11.277 2.7939999 -0.86699998 0.31
-11.245 2.7479999 -0.86299998 0.38
-11.218 2.723 -0.86000001 0.30000001
-11.198 2.681 -0.85699999 0.37
-11.165 2.6359999 -0.85399997 0.30000001
-11.137 2.592 -0.85000002 0.34999999
-11.112 2.549 -0.847 0.28999999
-11.075 2.5039999 -0.84299999 0.37
-11.064 2.4649999 -0.84100002 0.28999999
-11.027 2.4389999 -0.83700001 0.36000001
-10.995 2.395 -0.833 0.33000001
-10.976 2.355 -0.83099997 0.34
-10.954 2.3139999 -0.82800001 0.33000001
-10.922 2.2720001 -0.824 0.31999999
-10.904 2.2320001 -0.82200003 0.34
-10.868 2.1889999 -0.81800002 0.31999999
-10.848 2.1670001 -0.81599998 0.31999999
-10.813 2.125 -0.81199998 0.31999999
-10.81 2.089 -0.81099999 0.33000001
-10.782 2.0480001 -0.80800003 0.31999999
-10.749 2.007 -0.80400002 0.31999999
-10.73 1.9680001 -0.80199999 0.31
-10.695 1.927 -0.79799998 0.31999999
-10.662 1.904 -0.79500002 0.31
-10.639 1.865 -0.792 0.31999999
-10.627 1.829 -0.79000002 0.31
-10.595 1.789 -0.787 0.31
-10.57 1.75 -0.78399998 0.34999999
-10.546 1.712 -0.78100002 0.28999999
-10.529 1.676 -0.77899998 0.33000001
-10.508 1.655 -0.77700001 0.28
-10.47 1.6160001 -0.773 0.34
-10.457 1.58 -0.77100003 0.30000001
-10.425 1.541 -0.76800001 0.33000001
-10.396 1.5039999 -0.76499999 0.31
-10.387 1.469 -0.76300001 0.31999999
-10.364 1.449 -0.76099998 0.33000001
-10.333 1.4119999 -0.75800002 0.30000001
-10.317 1.377 -0.75599998 0.31
-10.302 1.341 -0.75400001 0.31
-10.276 1.3049999 -0.75099999 0.30000001
-10.255 1.27 -0.74900001 0.31999999
-10.223 1.233 -0.74599999 0.31999999
-10.197 1.214 -0.74299997 0.30000001
-10.176 1.179 -0.741 0.30000001
-10.151 1.143 -0.73799998 0.30000001
-10.127 1.108 -0.73500001 0.30000001
-10.113 1.075 -0.73400003 0.28999999
-10.106 1.0420001 -0.73299998 0.31999999
-9.4870005 0.93099999 -0.67500001 0.14
-9.4320002 0.89600003 -0.67000002 0.15000001
-9.4390001 0.86699998 -0.67000002 0.16
-9.408 0.83399999 -0.667 0.23
-9.4130001 0.81900001 -0.66799998 0.14
-9.3599997 0.78500003 -0.662 0.15000001
-9.3629999 0.75599998 -0.662 0.16
-9.3450003 0.72500002 -0.66100001 0.20999999
-9.3450003 0.69499999 -0.66000003 0.13
-9.2860003 0.66100001 -0.65499997 0.14
-9.3109999 0.648 -0.65700001 0.16
-9.2790003 0.61699998 -0.65399998 0.20999999
-9.2690001 0.58700001 -0.653 0.13
-9.2349997 0.55500001 -0.64899999 0.14
-9.2589998 0.528 -0.65100002 0.14
-9.2030001 0.495 -0.64600003 0.14
-9.1920004 0.46599999 -0.64499998 0.15000001
-9.1789999 0.45100001 -0.64399999 0.31
-9.158 0.421 -0.64200002 0.2
-9.1230001 0.36199999 -0.63800001 0.17
-9.1599998 0.33399999 -0.64200002 0.16
-9.191 0.30700001 -0.64399999 0.31
-9.224 0.27900001 -0.64700001 0.2
-9.3100004 0.26699999 -0.65499997 0.14
-9.3240004 0.23800001 -0.65600002 0.25
-9.4169998 0.211 -0.66500002 0.19
-9.4770002 0.183 -0.67000002 0.28999999
-9.4659996 0.153 -0.66900003 0.28999999
-9.448 0.123 -0.66799998 0.28999999
-9.4259996 0.108 -0.66600001 0.27000001
-9.4189997 0.078000002 -0.66500002 0.23999999
-9.415 0.048 -0.66399997 0.14
-9.3590002 0.018999999 -0.65899998 0.47999999
-9.3649998 -0.011 -0.66000003 0.23999999
-9.4469995 -0.039999999 -0.667 0.13
-9.4390001 -0.07 -0.667 0.44999999
-9.5179996 -0.085000001 -0.67400002 0.22
-9.5740004 -0.116 -0.67900002 0.13
-9.5830002 -0.146 -0.68000001 0.47
-9.6459999 -0.177 -0.68599999 0.25
-9.7200003 -0.20900001 -0.69300002 0.23
-9.7550001 -0.23999999 -0.69599998 0.33000001
-9.7180004 -0.27000001 -0.69300002 0.28999999
-9.7119999 -0.285 -0.69199997 0.18000001
-9.6709995 -0.31400001 -0.68800002 0.34
-9.8269997 -0.34999999 -0.70300001 0.18000001
-10.029 -0.38800001 -0.722 0.27000001
-10.089 -0.42199999 -0.727 0.28
-10.134 -0.456 -0.73100001 0.28
-10.192 -0.49000001 -0.73699999 0.28999999
-10.241 -0.509 -0.741 0.27000001
-10.297 -0.54400003 -0.74699998 0.31999999
-10.353 -0.579 -0.75199997 0.30000001
-10.411 -0.61500001 -0.75800002 0.28
-10.468 -0.65100002 -0.76300001 0.28999999
-10.53 -0.68800002 -0.76899999 0.28999999
-10.579 -0.72500002 -0.77399999 0.28999999
-10.64 -0.745 -0.77899998 0.30000001
-10.705 -0.78399998 -0.78600001 0.31999999
-10.748 -0.82099998 -0.79000002 0.31
-10.813 -0.86000001 -0.796 0.28999999
-10.89 -0.89999998 -0.80299997 0.33000001
-10.926 -0.93699998 -0.80699998 0.28
-10.996 -0.96100003 -0.81400001 0.34
-11.071 -1.002 -0.82099998 0.28999999
-11.129 -1.0420001 -0.82599998 0.33000001
-11.189 -1.0829999 -0.83200002 0.30000001
-11.267 -1.126 -0.83999997 0.31
-11.321 -1.168 -0.84500003 0.31999999
-11.39 -1.211 -0.852 0.31999999
-11.481 -1.238 -0.86000001 0.31999999
-11.541 -1.281 -0.866 0.34
-11.604 -1.325 -0.87300003 0.34
-11.681 -1.3710001 -0.88 0.28
-11.74 -1.415 -0.88599998 0.34999999
-11.812 -1.461 -0.89300001 0.33000001
-11.901 -1.51 -0.90200001 0.30000001
-11.966 -1.5369999 -0.90799999 0.37
-12.032 -1.584 -0.91399997 0.30000001
-12.121 -1.6339999 -0.92299998 0.36000001
-12.187 -1.682 -0.93000001 0.28
-12.237 -1.728 -0.935 0.34999999
-12.222 -1.765 -0.93400002 0.34
-12.197 -1.801 -0.93199998 0.36000001
-12.243 -1.827 -0.93699998 0.41999999
-12.318 -1.878 -0.94400001 0.28999999
-12.34 -1.921 -0.94700003 0.31999999
-12.389 -1.9680001 -0.95200002 0.16
-12.471 -2.0209999 -0.95999998 0.34999999
-12.555 -2.075 -0.96899998 0.25
-12.644 -2.1300001 -0.97799999 0.17
-12.716 -2.1630001 -0.98500001 0.16
-12.829 -2.223 -0.99599999 0.17
-12.89 -2.276 -1.002 0.30000001
-13.009 -2.3380001 -1.0140001 0.23
-13.111 -2.3989999 -1.024 0.18000001
-13.199 -2.4579999 -1.033 0.41
-13.299 -2.4979999 -1.043 0.23
-13.407 -2.562 -1.054 0.2
-13.449 -2.6129999 -1.058 0.37
-14.207 -2.806 -1.13 0.19
-14.368 -2.8840001 -1.146 0.33000001
-14.476 -2.9530001 -1.1569999 0.33000001
-14.669 -3.0639999 -1.176 0.60000002
-14.692 -3.1170001 -1.179 0.28999999
-14.673 -3.161 -1.179 0.30000001
-14.624 -3.198 -1.175 0.34
-14.653 -3.253 -1.179 0.23
-14.701 -3.312 -1.184 0.28999999
-14.729 -3.3670001 -1.188 0.30000001
-14.749 -3.3959999 -1.1900001 0.28
-14.88 -3.4749999 -1.2029999 0
-15.46 -3.8150001 -1.263 0.2
-15.572 -3.8940001 -1.274 0.31
-15.726 -3.9590001 -1.289 0.25
-15.883 -4.0510001 -1.306 0.28999999
-16.025 -4.1409998 -1.3200001 0.16
-16.482 -4.3130002 -1.365 0.41999999
-16.645 -4.4120002 -1.382 0.23999999
-16.792999 -4.507 -1.397 0.19
-16.944 -4.6040001 -1.413 0.40000001
-17.114 -4.6789999 -1.4299999 0.23999999
-17.301001 -4.7880001 -1.449 0.23999999
-17.429001 -4.8829999 -1.4630001 0
-17.516001 -4.9660001 -1.472 0
-2.53 -14.117 -1.117 0
-2.7869999 -15.823 -1.276 0
-2.6500001 -15.192 -1.216 0
-2.5699999 -15.014 -1.199 0
-2.6670001 -15.872 -1.278 0
-2.6110001 -15.841 -1.275 0
-2.5079999 -15.521 -1.244 0
-2.3640001 -15.242 -1.217 0
-2.339 -15.239 -1.216 0
-2.277 -15.82 -1.268 0
-2.2320001 -15.863 -1.271 0
-2.187 -15.907 -1.275 0
-2.1659999 -15.936 -1.277 0
-2.1110001 -15.906 -1.274 0
-2.0599999 -15.906 -1.273 0
-2.0139999 -15.946 -1.276 0
-1.964 -15.951 -1.276 0
-1.5 -12.891 -0.99199998 0.36000001
-1.478 -12.876 -0.99000001 0
-1.553 -14.725 -1.16 0
-1.502 -14.682 -1.156 0
-1.4529999 -14.661 -1.153 0
-1.401 -14.604 -1.147 0
-1.375 -14.576 -1.145 0
-1.3200001 -14.473 -1.135 0
-1.284 -14.591 -1.145 0
-1.243 -14.644 -1.15 0
-0.94199997 -14.645 -1.148 0.07
-0.87599999 -14.322 -1.118 0.17
-0.83099997 -14.326 -1.118 0.18000001
-0.80500001 -14.27 -1.113 0.13
-0.76200002 -14.306 -1.1160001 0
-0.71799999 -14.338 -1.119 0
-0.56400001 -14.413 -1.125 0.20999999
-0.514 -14.303 -1.115 0
-0.50599998 -15.382 -1.214 0
-0.461 -15.483 -1.223 0.12
-0.368 -15.634 -1.2359999 0.51999998
-0.31900001 -15.636 -1.2359999 0.25999999
-0.199 -15.845 -1.255 0.050000001
0.505 -16.052999 -1.275 0
0.55800003 -16.145 -1.284 0
0.61199999 -16.229 -1.2920001 0
0.64099997 -16.316999 -1.3 0
0.69499999 -16.391001 -1.307 0
0.75 -16.468 -1.314 0
0.80599999 -16.547001 -1.322 0
0.86199999 -16.634001 -1.33 0
0.91900003 -16.721001 -1.3380001 0
0.977 -16.805 -1.346 0
1.008 -16.886999 -1.354 0
1.067 -16.983999 -1.363 0
1.127 -17.077 -1.372 0
1.186 -17.160999 -1.38 0
1.247 -17.257 -1.3890001 0
1.309 -17.351999 -1.398 0
1.37 -17.441 -1.4069999 0
1.405 -17.534 -1.416 0
1.47 -17.643 -1.426 0
1.535 -17.759001 -1.437 0.11
1.604 -17.895 -1.45 0.25
1.668 -17.976999 -1.4579999 0.25
1.757 -18.319 -1.49 0
1.766 -18.112 -1.472 0
3.01 8.2989998 -0.667 0.31
2.9849999 8.3129997 -0.667 0.56999999
2.9779999 8.3760004 -0.67299998 0.31
2.9560001 8.3970003 -0.67400002 0.54000002
2.9530001 8.4320002 -0.67699999 0.34
