# .PCD v0.7 - Point Cloud Data file format
VERSION 0.7
FIELDS x y z intensity
SIZE 4 4 4 4
TYPE F F F F
COUNT 1 1 1 1
WIDTH 1378
HEIGHT 1
VIEWPOINT 0 0 0 1 0 0 0
POINTS 1378
DATA ascii
-3.4300001 9.1440001 -0.88300002 0.25999999
-3.5090001 9.2650003 -0.89899999 0.37
-3.576 9.3959999 -0.91500002 0.36000001
-3.6689999 9.5500002 -0.935 0.31999999
-3.7449999 9.6549997 -0.949 0.25999999
-3.8269999 9.7749996 -0.96399999 0.31999999
-3.9059999 9.8830004 -0.97899997 0.31999999
-3.9849999 9.9899998 -0.99299997 0.33000001
-4.0619998 10.092 -1.007 0.36000001
-4.1469998 10.208 -1.022 0.31999999
-4.2189999 10.339 -1.039 0.37
-4.329 10.511 -1.061 0.30000001
-4.4250002 10.648 -1.079 0.33000001
-4.5190001 10.779 -1.097 0.31999999
-4.6350002 10.959 -1.12 0.34
-4.7290001 11.081 -1.136 0.34
-4.835 11.28 -1.161 0.36000001
-4.9450002 11.436 -1.182 0.41999999
-5.0619998 11.604 -1.204 0.40000001
-5.1939998 11.806 -1.2309999 0.36000001
-5.3140001 11.975 -1.253 0.28999999
-5.4450002 12.165 -1.278 0.34999999
-5.579 12.36 -1.304 0.44
-5.7030001 12.581 -1.332 0.40000001
-5.8470001 12.79 -1.36 0.23999999
-5.9970002 13.008 -1.3890001 0.44999999
-6.1760001 13.286 -1.425 0.30000001
-6.3540001 13.555 -1.461 0.37
-6.5250001 13.806 -1.494 0.38999999
-6.7179999 14.099 -1.5319999 0.36000001
-6.9029999 14.427 -1.574 0.34999999
-7.1170001 14.754 -1.617 0.36000001
-7.3439999 15.101 -1.663 0.31
-7.52 15.339 -1.6950001 0.47
10.418 -13.165 -1.6619999 0
9.2399998 -11.204 -1.411 0.31
9.0740004 -10.934 -1.376 0.38
8.9589996 -10.727 -1.35 0.25999999
8.974 -10.678 -1.347 0.38999999
8.8109999 -10.417 -1.313 0.31999999
8.6099997 -10.148 -1.276 0.31999999
8.5609999 -10.027 -1.263 0.38999999
8.073 -9.3979998 -1.174 0.47999999
7.915 -9.1569996 -1.143 0.22
12.38 1.433 -1.2589999 0.40000001
12.604 1.5190001 -1.286 0.36000001
12.576 1.556 -1.284 0.25
12.581 1.596 -1.285 0.50999999
12.801 1.706 -1.312 0.37
12.894 1.7589999 -1.324 0.46000001
12.924 1.784 -1.3279999 0.43000001
13.086 1.848 -1.347 0.23999999
13.119 1.8940001 -1.352 0.63
13.34 1.9680001 -1.3789999 0
-0.48100001 8.4960003 -0.79699999 0.16
-0.50700003 8.4910002 -0.796 0.46000001
-0.53399998 8.4949999 -0.79699999 0.30000001
-4.9050002 15.09 -1.658 0.44
-4.9439998 15.047 -1.654 0.36000001
-5.0050001 15.072 -1.659 0.47999999
-5.0320001 14.998 -1.652 0.20999999
-5.0780001 14.979 -1.652 0.46000001
-5.1139998 15.008 -1.656 0.36000001
-5.1690001 15.015 -1.659 0.31999999
-2.9219999 8.3660002 -0.838 0.11
-2.9790001 8.4449997 -0.84899998 0.28
-3.0439999 8.5439997 -0.86199999 0.28999999
-3.1140001 8.6560001 -0.87699997 0.41
-3.181 8.757 -0.89099997 0.34999999
-3.2539999 8.8719997 -0.90600002 0.44999999
-3.3110001 8.9840002 -0.921 0.28
-3.382 9.0909996 -0.93599999 0.28
-3.4560001 9.2010002 -0.95099998 0.47999999
-3.533 9.3190002 -0.96700001 0.34999999
-3.6040001 9.4169998 -0.98100001 0.38999999
-3.6800001 9.5279999 -0.99599999 0.30000001
-3.7409999 9.6409998 -1.011 0.31
-3.8169999 9.7480001 -1.026 0.46000001
-3.892 9.8470001 -1.04 0.28999999
-3.974 9.9639997 -1.056 0.34999999
-4.0570002 10.082 -1.073 0.30000001
-4.131 10.172 -1.086 0.50999999
-4.224 10.31 -1.105 0.30000001
-4.3119998 10.48 -1.127 0.44999999
-4.4029999 10.608 -1.145 0.28999999
-4.5 10.746 -1.164 0.40000001
-4.6149998 10.926 -1.189 0.31999999
-4.7119999 11.058 -1.207 0.31999999
-4.8299999 11.239 -1.232 0.41
-4.9450002 11.408 -1.256 0.34999999
-5.039 11.577 -1.278 0.38999999
-5.164 11.765 -1.304 0.38
-5.2839999 11.936 -1.3279999 0.34
-5.4070001 12.111 -1.353 0.44999999
-5.546 12.321 -1.382 0.34999999
-5.6820002 12.519 -1.41 0.34999999
-5.8239999 12.727 -1.439 0.23999999
-5.9489999 12.947 -1.4680001 0.49000001
-6.1149998 13.201 -1.503 0.30000001
-6.283 13.454 -1.538 0.38
-6.4549999 13.709 -1.574 0.41
-6.6360002 13.981 -1.612 0.36000001
-6.8340001 14.285 -1.654 0.34
-7.0450001 14.609 -1.699 0.44
-7.211 14.895 -1.737 0.34
-7.3109999 14.981 -1.752 0.38
-7.4829998 15.213 -1.785 0.28999999
-7.7220001 15.576 -1.835 0.18000001
9.8280001 -12.145 -1.6289999 0.12
9.6610003 -11.861 -1.591 0.25999999
9.4829998 -11.568 -1.551 0.34
9.2720003 -11.273 -1.5089999 0.34
9.1199999 -11.017 -1.474 0.30000001
8.948 -10.739 -1.437 0.38
8.8100004 -10.505 -1.405 0.34999999
8.6619997 -10.263 -1.372 0.36000001
8.5450001 -10.059 -1.345 0.31999999
8.5939999 -10.053 -1.348 0.31999999
8.5010004 -9.9130001 -1.329 0.34
8.3769999 -9.7049999 -1.301 0.20999999
8.0489998 -9.2639999 -1.237 0.47
12.481 1.452 -1.3430001 0.27000001
12.541 1.499 -1.351 0.55000001
12.597 1.546 -1.359 0.34999999
12.632 1.591 -1.364 0.47999999
12.704 1.641 -1.373 0.34999999
12.791 1.693 -1.385 0.44
12.92 1.7309999 -1.401 0.40000001
12.885 1.768 -1.397 0.47999999
12.897 1.811 -1.4 0.37
12.907 1.853 -1.402 0.25
13.207 1.982 -1.4400001 0
-0.51099998 8.5200005 -0.84899998 0.30000001
-0.53799999 8.5319996 -0.85000002 0.46000001
-4.638 14.278 -1.6440001 0.34
-4.6919999 14.29 -1.647 0.55000001
-4.7519999 14.32 -1.653 0.34999999
-2.648 7.9320002 -0.82700002 0.14
-2.7090001 8.0310001 -0.84100002 0.47999999
-2.756 8.1260004 -0.85399997 0.43000001
-2.816 8.2189999 -0.86699998 0.30000001
-2.8599999 8.2609997 -0.87400001 0.27000001
-2.9230001 8.3579998 -0.88800001 0.38
-2.99 8.4610004 -0.90200001 0.37
-3.0569999 8.566 -0.917 0.34
-3.1289999 8.6789999 -0.93300003 0.31999999
-3.1849999 8.79 -0.949 0.43000001
-3.256 8.8970003 -0.96399999 0.41
-3.329 9.0080004 -0.98000002 0.31999999
-3.402 9.118 -0.99599999 0.30000001
-3.477 9.2299995 -1.012 0.47
-3.5510001 9.3360004 -1.027 0.30000001
-3.6270001 9.4449997 -1.043 0.44999999
-3.684 9.5459995 -1.057 0.30000001
-3.7639999 9.6639996 -1.074 0.38
-3.842 9.7700005 -1.09 0.40000001
-3.9219999 9.8839998 -1.1059999 0.41
-4.0040002 9.9960003 -1.123 0.27000001
-4.0879998 10.113 -1.14 0.47999999
-4.1859999 10.261 -1.161 0.34999999
-4.2670002 10.412 -1.182 0.43000001
-4.3509998 10.524 -1.199 0.33000001
-4.4640002 10.7 -1.224 0.34999999
-4.566 10.847 -1.2460001 0.40000001
-4.6859999 11.033 -1.272 0.34999999
-4.7800002 11.157 -1.291 0.44999999
-4.9050002 11.348 -1.318 0.30000001
-4.9959998 11.509 -1.341 0.46000001
-5.1220002 11.697 -1.368 0.36000001
-5.2509999 11.888 -1.396 0.41
-5.3850002 12.087 -1.425 0.34999999
-5.506 12.254 -1.45 0.37
-5.6459999 12.461 -1.48 0.44999999
-5.7729998 12.685 -1.512 0.34
-5.9130001 12.885 -1.541 0.38999999
-6.085 13.149 -1.579 0.34
-6.2579999 13.412 -1.618 0.46000001
-6.4320002 13.67 -1.656 0.25999999
-6.6220002 13.958 -1.697 0.56999999
-6.7690001 14.152 -1.727 0.28999999
-6.8470001 14.258 -1.743 0.33000001
-7.0289998 14.518 -1.781 0.30000001
-7.244 14.842 -1.8279999 0.30000001
-7.4229999 15.088 -1.865 0.23
-7.54 15.205 -1.8839999 0.58999997
-7.6199999 15.245 -1.893 0.37
9.5249996 -11.776 -1.66 0.30000001
9.5419998 -11.721 -1.656 0.31999999
9.5249996 -11.663 -1.649 0.34999999
9.3920002 -11.428 -1.617 0.31
9.2349997 -11.166 -1.58 0.36000001
9.0760002 -10.904 -1.5420001 0.34999999
8.9259996 -10.657 -1.507 0.38
8.7799997 -10.417 -1.473 0.36000001
8.6330004 -10.179 -1.439 0.38
8.4809999 -9.9680004 -1.4069999 0.34
8.349 -9.7510004 -1.377 0.44999999
8.2510004 -9.5760002 -1.353 0.31999999
8.25 -9.5139999 -1.347 0.34999999
8.3879995 -9.6120005 -1.367 0.41999999
8.1029997 -9.2290001 -1.308 0.27000001
10.796 0.495 -1.183 0.36000001
11.83 1.1 -1.3200001 0.54000002
11.878 1.142 -1.327 0.31999999
12.214 1.309 -1.372 0.40000001
12.294 1.357 -1.383 0.34999999
12.276 1.3940001 -1.381 0.52999997
12.354 1.442 -1.392 0.41
12.377 1.484 -1.395 0.47999999
12.369 1.503 -1.3940001 0.34
12.39 1.545 -1.398 0.31
12.44 1.59 -1.405 0.38
12.508 1.6390001 -1.414 0.33000001
12.585 1.689 -1.425 0.41999999
12.661 1.74 -1.4349999 0.41
12.741 1.791 -1.446 0.41
12.833 1.825 -1.459 0.28
12.878 1.872 -1.465 0.58999997
2.4719999 6.9990001 -0.75 0.16
-0.48899999 8.5019999 -0.88999999 0.25
-0.51700002 8.5240002 -0.89300001 0.62
-0.542 8.4989996 -0.88999999 0.18000001
-4.2729998 13.752 -1.642 0.18000001
-4.302 13.695 -1.637 0.56999999
-2.4130001 7.5570002 -0.815 0.30000001
-4.3870001 13.664 -1.636 0.28999999
-2.4949999 7.6500001 -0.82999998 0.28999999
-2.543 7.757 -0.84500003 0.37
-2.6129999 7.8899999 -0.86400002 0.22
-2.6730001 7.9860001 -0.87800002 0.41
-2.7030001 7.9920001 -0.88 0.5
-2.767 8.0979996 -0.89499998 0.34
-2.8310001 8.2040005 -0.91100001 0.34999999
-2.8959999 8.3079996 -0.926 0.38
-2.948 8.4160004 -0.94099998 0.31999999
-3.0009999 8.4829998 -0.95200002 0.44999999
-3.059 8.5620003 -0.96399999 0.33000001
-3.128 8.6700001 -0.98000002 0.34
-3.1919999 8.7620001 -0.99400002 0.47999999
-3.2639999 8.8730001 -1.01 0.34
-3.335 8.9799995 -1.026 0.43000001
-3.3989999 9.1090002 -1.044 0.25
-3.467 9.2060003 -1.059 0.47999999
-3.5420001 9.316 -1.075 0.33000001
-3.6140001 9.4180002 -1.091 0.49000001
-3.6889999 9.5249996 -1.107 0.36000001
-3.767 9.6350002 -1.124 0.41
-3.8429999 9.7419996 -1.14 0.44
-3.9189999 9.8889999 -1.161 0.23999999
-3.9909999 9.9799995 -1.175 0.47999999
-4.0739999 10.096 -1.193 0.36000001
-4.158 10.214 -1.211 0.44
-4.25 10.348 -1.232 0.44999999
-4.3470001 10.49 -1.253 0.36000001
-4.4359999 10.659 -1.277 0.44999999
-4.5339999 10.799 -1.299 0.38999999
-4.6420002 10.962 -1.323 0.31999999
-4.75 11.119 -1.347 0.47999999
-4.8629999 11.288 -1.373 0.36000001
-4.9759998 11.452 -1.398 0.44
-5.098 11.634 -1.425 0.34999999
-5.2069998 11.833 -1.454 0.40000001
-5.336 12.024 -1.483 0.33000001
-5.4619999 12.206 -1.511 0.46000001
-5.598 12.406 -1.5420001 0.36000001
-5.7329998 12.6 -1.571 0.36000001
-5.8699999 12.795 -1.601 0.37
-6.0279999 13.034 -1.637 0.41
-6.1799998 13.309 -1.678 0.43000001
-6.3390002 13.541 -1.7130001 0.34
-6.4219999 13.606 -1.725 0.38
-6.5440001 13.754 -1.749 0.36000001
-6.73 14.032 -1.791 0.28999999
-6.9390001 14.354 -1.84 0.25
-7.073 14.515 -1.8660001 0.47
9.1219997 -11.321 -1.66 0.2
9.1459999 -11.279 -1.658 0.33000001
9.1689997 -11.235 -1.655 0.34999999
9.1929998 -11.192 -1.653 0.33000001
9.1829996 -11.144 -1.648 0.36000001
9.1020002 -10.974 -1.624 0.31
8.941 -10.711 -1.585 0.41
8.7969999 -10.471 -1.55 0.34
8.6529999 -10.232 -1.515 0.36000001
8.5089998 -9.9980001 -1.48 0.37
8.3669996 -9.7670002 -1.446 0.38
8.2189999 -9.5640001 -1.414 0.34999999
8.1020002 -9.3669996 -1.385 0.34999999
7.9770002 -9.1630001 -1.355 0.40000001
7.96 -9.0860004 -1.346 0.30000001
8.0030003 -9.0769997 -1.348 0.33000001
7.8559999 -8.8540001 -1.3150001 0.37
7.6399999 -8.5550003 -1.268 0.34999999
7.3569999 -8.1590004 -1.206 0.34999999
10.774 0.39700001 -1.255 0.41
10.86 0.435 -1.267 0.38999999
11.786 0.97600001 -1.396 0.31
11.818 1.016 -1.401 0.47999999
11.84 1.056 -1.404 0.44999999
11.823 1.092 -1.402 0.36000001
11.822 1.1289999 -1.402 0.34999999
11.846 1.169 -1.406 0.34
11.895 1.193 -1.413 0.38
11.964 1.238 -1.423 0.33000001
12.086 1.327 -1.441 0.33000001
12.139 1.372 -1.448 0.41999999
12.21 1.419 -1.459 0.41999999
12.278 1.447 -1.4680001 0.41
12.346 1.494 -1.478 0.41
12.424 1.543 -1.489 0.41
12.494 1.592 -1.499 0.40000001
12.564 1.641 -1.51 0.40000001
12.635 1.691 -1.52 0.38
12.714 1.743 -1.5319999 0.33000001
12.796 1.774 -1.543 0.46000001
12.89 1.829 -1.557 0.27000001
12.941 1.878 -1.564 0.58999997
13.259 1.967 -1.609 0
2.513 7.0780001 -0.81400001 0.27000001
2.4879999 7.0770001 -0.81300002 0.23
2.401 7.006 -0.80000001 0.36000001
2.3729999 6.994 -0.79699999 0.27000001
2.279 6.9299998 -0.78500003 0.37
2.1730001 6.8600001 -0.77200001 0.2
-0.50099999 8.5959997 -0.96200001 0.17
-0.52700001 8.5690002 -0.95899999 0.49000001
-0.55400002 8.5769997 -0.95999998 0.28999999
-2.2409999 7.3330002 -0.83499998 0.27000001
-2.2939999 7.4200001 -0.84899998 0.31999999
-2.323 7.4320002 -0.85100001 0.25
-2.3699999 7.54 -0.86699998 0.41
-2.428 7.638 -0.88200003 0.20999999
-2.454 7.6360002 -0.88300002 0.38999999
-2.52 7.7579999 -0.90100002 0.37
-2.5669999 7.816 -0.91100001 0.37
-2.6099999 7.8639998 -0.91900003 0.34
-2.688 8.0139999 -0.94099998 0.16
-2.721 8.0690002 -0.94999999 0.56
-2.7850001 8.1730003 -0.96600002 0.38
-2.855 8.2919998 -0.98400003 0.41
-2.9189999 8.3909998 -0.99900001 0.27000001
-2.9690001 8.4469995 -1.0089999 0.41
-3.0350001 8.5480003 -1.024 0.28999999
-3.0929999 8.6239996 -1.0369999 0.47
-3.154 8.7519999 -1.056 0.25
-3.2219999 8.8509998 -1.071 0.51999998
-3.2909999 8.9510002 -1.087 0.28
-3.362 9.0559998 -1.104 0.41999999
-3.4400001 9.177 -1.123 0.34999999
-3.507 9.2659998 -1.137 0.47999999
-3.586 9.3839998 -1.156 0.36000001
-3.651 9.5080004 -1.175 0.38999999
-3.7290001 9.6219997 -1.193 0.38
-3.802 9.717 -1.2079999 0.38999999
-3.8859999 9.8400002 -1.228 0.44999999
-3.9820001 9.9890003 -1.251 0.34
-4.0630002 10.1 -1.2690001 0.38999999
-4.1529999 10.23 -1.29 0.34999999
-4.2119999 10.328 -1.3049999 0.46000001
-4.3140001 10.481 -1.33 0.40000001
-4.4159999 10.634 -1.354 0.28999999
-4.5139999 10.774 -1.376 0.49000001
-4.6329999 10.96 -1.406 0.28999999
-4.7399998 11.115 -1.431 0.46000001
-4.8390002 11.295 -1.4579999 0.25999999
-4.9569998 11.471 -1.4859999 0.49000001
-5.0879998 11.673 -1.518 0.25999999
-5.2049999 11.838 -1.545 0.47
-5.348 12.059 -1.58 0.36000001
-5.4790001 12.248 -1.61 0.38
-5.6149998 12.446 -1.642 0.43000001
-5.7340002 12.657 -1.675 0.46000001
-5.8889999 12.889 -1.712 0.34999999
-5.9439998 12.901 -1.716 0.30000001
-6.053 13.03 -1.738 0.38
-6.2049999 13.247 -1.774 0.31
-6.375 13.498 -1.814 0.31
-6.5180001 13.689 -1.846 0.30000001
-6.5679998 13.683 -1.848 0.52999997
8.79 -10.7 -1.668 0.34
8.7880001 -10.663 -1.664 0.34
8.8120003 -10.625 -1.663 0.33000001
8.8319998 -10.581 -1.66 0.31999999
8.8109999 -10.489 -1.648 0.34
8.6700001 -10.256 -1.612 0.36000001
8.5310001 -10.028 -1.576 0.34
8.3739996 -9.8129997 -1.541 0.36000001
8.2609997 -9.6199999 -1.511 0.38999999
8.1309996 -9.4099998 -1.478 0.34
7.908 -9.0369997 -1.42 0.36000001
7.789 -8.8459997 -1.39 0.34999999
7.6869998 -8.6759996 -1.364 0.44999999
7.6459999 -8.6020002 -1.353 0.33000001
7.6939998 -8.6020002 -1.357 0.23999999
7.6009998 -8.4449997 -1.3329999 0.46000001
7.5359998 -8.3199997 -1.3150001 0.23
7.4159999 -8.1370001 -1.286 0.52999997
7.4190001 -8.0889997 -1.281 0.27000001
7.434 -8.0799999 -1.2819999 0.50999999
10.403 0.207 -1.275 0.46000001
10.448 0.241 -1.281 0.31999999
10.771 0.366 -1.327 0.28999999
10.804 0.40099999 -1.332 0.30000001
10.854 0.43700001 -1.34 0.33000001
11.141 0.71100003 -1.382 0.25
11.191 0.76700002 -1.39 0.31999999
11.23 0.80500001 -1.396 0.30000001
11.297 0.84500003 -1.405 0.34
11.355 0.88499999 -1.414 0.28999999
11.413 0.926 -1.423 0.30000001
11.467 0.94800001 -1.431 0.31999999
11.527 0.98900002 -1.4400001 0.31
11.581 1.031 -1.448 0.33000001
11.647 1.073 -1.4579999 0.31999999
11.707 1.1160001 -1.467 0.34999999
11.76 1.158 -1.475 0.30000001
11.824 1.201 -1.484 0.34999999
11.893 1.227 -1.494 0.34
11.954 1.271 -1.5039999 0.30000001
12.026 1.317 -1.5140001 0.34999999
12.097 1.363 -1.525 0.30000001
12.15 1.408 -1.533 0.34999999
12.226 1.455 -1.545 0.28999999
12.29 1.502 -1.5549999 0.34999999
12.364 1.531 -1.5650001 0.34999999
12.442 1.58 -1.577 0.28999999
12.52 1.6289999 -1.589 0.34999999
12.581 1.677 -1.599 0.30000001
12.67 1.73 -1.612 0.36000001
12.729 1.778 -1.6210001 0.30000001
12.813 1.8099999 -1.6339999 0.36000001
12.887 1.862 -1.645 0.34
12.734 1.881 -1.624 0
2.4949999 7.0079999 -0.85500002 0.18000001
2.4690001 7.007 -0.85299999 0.25
2.369 6.9299998 -0.83899999 0
2.358 6.9720001 -0.84399998 0
2.2869999 6.868 -0.82599998 0.1
2.267 6.8790002 -0.82700002 0
2.2390001 6.869 -0.82499999 0.059999999
2.165 6.7870002 -0.81 0.1
2.142 6.7880001 -0.80900002 0.17
2.0599999 6.7119999 -0.796 0.14
2.0409999 6.724 -0.796 0.12
1.952 6.658 -0.78399998 0
1.937 6.6469998 -0.78200001 0.14
-0.509 8.5170002 -1.01 0.25
-0.53600001 8.5150003 -1.01 0.27000001
-1.919 6.869 -0.81099999 0.11
-1.993 6.9689999 -0.82800001 0
-2.072 7.0780001 -0.84600002 0
-2.0910001 7.0599999 -0.84399998 0.1
-2.151 7.1789999 -0.86299998 0
-2.1900001 7.2709999 -0.87699997 0.1
-2.2130001 7.2639999 -0.87699997 0.17
-2.27 7.369 -0.89300001 0.18000001
-2.3039999 7.3969998 -0.89899999 0.14
-2.348 7.4559999 -0.90799999 0.14
-2.4070001 7.5640001 -0.92500001 0.15000001
-2.437 7.5749998 -0.92799997 0.12
-2.4849999 7.6849999 -0.94499999 0.16
-2.536 7.7600002 -0.95700002 0.12
-2.5780001 7.8039999 -0.96499997 0.16
-2.6389999 7.9070001 -0.98199999 0.12
-2.698 8 -0.99699998 0.34
-2.7650001 8.118 -1.016 0.18000001
-2.822 8.2010002 -1.029 0.25
-2.855 8.2559996 -1.038 0.20999999
-2.914 8.3430004 -1.053 0.28999999
-2.977 8.4379997 -1.068 0.23
-3.0539999 8.5710001 -1.09 0.23
-3.1170001 8.6639996 -1.105 0.38
-3.181 8.7559996 -1.1210001 0.23999999
-3.253 8.8690004 -1.1390001 0.18000001
-3.3050001 8.9659996 -1.154 0.40000001
-3.375 9.0690002 -1.1720001 0.25
-3.444 9.1680002 -1.188 0.25999999
-3.517 9.2740002 -1.206 0.28
-3.6010001 9.4090004 -1.228 0.23999999
-3.674 9.5100002 -1.245 0.30000001
-3.737 9.6300001 -1.2640001 0.25999999
-3.813 9.7349997 -1.2819999 0.31999999
-3.888 9.8369999 -1.299 0.27000001
-3.9779999 9.974 -1.322 0.25
-4.0539999 10.073 -1.339 0.22
-4.1360002 10.186 -1.358 0.36000001
-4.2119999 10.279 -1.374 0.25999999
-4.2979999 10.443 -1.4 0.28999999
-4.4070001 10.616 -1.429 0.34
-4.5050001 10.757 -1.4529999 0.30000001
-4.6160002 10.926 -1.4809999 0.28999999
-4.717 11.07 -1.505 0.25
-4.8379998 11.255 -1.536 0.31
-4.954 11.429 -1.5650001 0.36000001
-5.073 11.604 -1.595 0.25999999
-5.1799998 11.8 -1.626 0.31999999
-5.3169999 12.01 -1.661 0.37
-5.448 12.203 -1.694 0.34
-5.5 12.216 -1.698 0.28
-5.5819998 12.295 -1.7130001 0.34999999
-5.7140002 12.483 -1.745 0.28999999
-5.8410001 12.71 -1.7819999 0.31
-5.9780002 12.901 -1.8150001 0.2
-4.8179998 -10.22 -1.401 0.25999999
-4.7859998 -10.235 -1.401 0.55000001
-4.8410001 -10.436 -1.4299999 0
8.4429998 -10.066 -1.6619999 0.25999999
8.4879999 -10.054 -1.664 0.34
8.4949999 -9.9989996 -1.659 0.30000001
8.4020004 -9.8260002 -1.632 0.30000001
8.2580004 -9.6260004 -1.597 0.31
8.1210003 -9.4060001 -1.561 0.28999999
7.9949999 -9.2010002 -1.527 0.31
7.8899999 -9.0220003 -1.498 0.31999999
7.7740002 -8.8319998 -1.467 0.30000001
7.6630001 -8.6499996 -1.438 0.31
7.5580001 -8.4779997 -1.41 0.25999999
7.4450002 -8.3240004 -1.383 0.19
7.3400002 -8.1540003 -1.355 0.49000001
7.3099999 -8.0699997 -1.3430001 0.22
7.3759999 -8.0909996 -1.352 0.17
7.461 -8.1330004 -1.364 0.44
7.4109998 -8.0279999 -1.348 0.23
7.3730001 -7.9359999 -1.335 0.31
6.9159999 -7.3720002 -1.233 0.30000001
10.427 0.17900001 -1.325 0.54000002
10.497 0.24699999 -1.336 0.46000001
10.686 0.30199999 -1.363 0.43000001
10.748 0.338 -1.373 0.46000001
10.753 0.37200001 -1.373 0.46000001
10.795 0.40700001 -1.38 0.51999998
10.802 0.44100001 -1.381 0.41
10.78 0.491 -1.378 0.34
10.798 0.52600002 -1.381 0.34999999
10.844 0.56300002 -1.388 0.38999999
10.903 0.60000002 -1.397 0.40000001
10.956 0.63800001 -1.405 0.41
11.018 0.676 -1.414 0.41999999
11.068 0.69700003 -1.4220001 0.43000001
11.135 0.736 -1.432 0.41
11.205 0.77700001 -1.443 0.43000001
11.256 0.81599998 -1.45 0.44
11.317 0.85600001 -1.46 0.41
11.373 0.89600003 -1.4680001 0.44
11.425 0.93699998 -1.476 0.38999999
11.491 0.96100003 -1.4859999 0.44999999
11.549 1.002 -1.495 0.43000001
11.611 1.044 -1.505 0.41999999
11.676 1.087 -1.515 0.43000001
11.746 1.131 -1.526 0.38999999
11.797 1.174 -1.534 0.44999999
11.872 1.2 -1.545 0.40000001
11.922 1.243 -1.553 0.41
11.985 1.288 -1.563 0.41
12.049 1.3329999 -1.573 0.41
12.118 1.38 -1.5829999 0.44999999
12.184 1.426 -1.594 0.44
12.256 1.474 -1.605 0.43000001
12.323 1.502 -1.615 0.41
12.4 1.551 -1.627 0.41
12.464 1.599 -1.637 0.47999999
12.51 1.645 -1.645 0.40000001
12.526 1.687 -1.648 0.40000001
12.527 1.727 -1.649 0.36000001
12.525 1.767 -1.65 0.34
12.546 1.79 -1.653 0.37
12.542 1.83 -1.653 0.30000001
12.534 1.869 -1.653 0.28999999
2.4960001 7.0489998 -0.89399999 0.30000001
2.4719999 7.0510001 -0.89300001 0.28
2.3740001 6.9790001 -0.87900001 0.34999999
2.349 6.941 -0.87199998 0.34
2.267 6.9120002 -0.86400002 0.44
2.237 6.895 -0.861 0.25
2.168 6.8270001 -0.84799999 0.28999999
2.1530001 6.816 -0.84600002 0.28999999
2.066 6.7620001 -0.83499998 0.25
2.0439999 6.7639999 -0.83399999 0.22
1.961 6.678 -0.81800002 0.23999999
1.933 6.6589999 -0.815 0.2
1.8559999 6.625 -0.80699998 0.36000001
1.83 6.6139998 -0.80400002 0.31999999
1.761 6.5609999 -0.79400003 0.20999999
1.739 6.5609999 -0.79299998 0.22
1.628 6.4689999 -0.77600002 0.20999999
1.6160001 6.4640002 -0.77499998 0.17
-0.505 8.5419998 -1.052 0.31
-0.52999997 8.5179996 -1.049 0.44999999
-0.55800003 8.5319996 -1.051 0.25999999
-1.867 6.7740002 -0.82800001 0.30000001
-1.874 6.7579999 -0.82599998 0.23
-1.932 6.8839998 -0.84600002 0.40000001
-1.948 6.8569999 -0.84299999 0.25999999
-2.0109999 6.993 -0.86500001 0.46000001
-2.033 6.987 -0.86500001 0.2
-2.085 7.0809999 -0.88 0.38
-2.1300001 7.1500001 -0.89200002 0.18000001
-2.158 7.2010002 -0.89999998 0.41
-2.2019999 7.2649999 -0.91100001 0.23
-2.234 7.2880001 -0.91500002 0.34999999
-2.296 7.4050002 -0.93400002 0.41999999
-2.3369999 7.4530001 -0.94300002 0.27000001
-2.3729999 7.4850001 -0.949 0.25
-2.444 7.6259999 -0.972 0.41999999
-2.4590001 7.632 -0.97299999 0.25999999
-2.513 7.7140002 -0.98699999 0.36000001
-2.572 7.8119998 -1.003 0.31999999
-2.6300001 7.901 -1.018 0.28
-2.684 7.9790001 -1.031 0.37
-2.73 8.0319996 -1.041 0.41999999
-2.783 8.1459999 -1.059 0.38
-2.845 8.2399998 -1.075 0.34
-2.9170001 8.3629999 -1.096 0.47999999
-2.9790001 8.4549999 -1.1109999 0.31
-3.033 8.5220003 -1.123 0.40000001
-3.109 8.6479998 -1.1440001 0.34
-3.1619999 8.7069998 -1.155 0.43000001
-3.2160001 8.8109999 -1.1720001 0.44999999
-3.289 8.9259996 -1.191 0.30000001
-3.3599999 9.0279999 -1.209 0.43000001
-3.431 9.1309996 -1.227 0.40000001
-3.513 9.2600002 -1.249 0.38
-3.5869999 9.3640003 -1.267 0.40000001
-3.668 9.4849997 -1.2869999 0.34999999
-3.75 9.6079998 -1.308 0.33000001
-3.803 9.698 -1.323 0.46000001
-3.8900001 9.8269997 -1.346 0.36000001
-3.9860001 9.9770002 -1.3710001 0.34999999
-4.0580001 10.063 -1.387 0.37
-4.1430001 10.182 -1.408 0.40000001
-4.2290001 10.299 -1.428 0.38
-4.3130002 10.457 -1.454 0.38
-4.4200001 10.618 -1.482 0.38
-4.5370002 10.803 -1.513 0.41
-4.6360002 10.942 -1.538 0.31
-4.756 11.127 -1.569 0.40000001
-4.8709998 11.295 -1.599 0.47
-4.994 11.481 -1.631 0.37
-5.1170001 11.713 -1.669 0.46000001
-5.224 11.854 -1.694 0.36000001
-5.277 11.874 -1.7 0.36000001
-5.3629999 11.963 -1.717 0.34999999
-5.5 12.166 -1.752 0.34
-5.6290002 12.347 -1.784 0.34
-5.6700001 12.335 -1.785 0.44999999
-5.6890001 12.326 -1.785 0.58999997
-5.8899999 12.654 -1.841 0.41
-4.789 -10.263 -1.456 0.66000003
-4.7950001 -10.361 -1.469 0.68000001
8.2729998 -9.71 -1.665 0.34999999
8.2749996 -9.651 -1.659 0.34
8.2480001 -9.5900002 -1.65 0.36000001
8.1379995 -9.4029999 -1.618 0.33000001
8.0100002 -9.1969995 -1.5829999 0.41
7.8979998 -9.0109997 -1.552 0.37
7.7969999 -8.8409996 -1.524 0.37
7.6820002 -8.6549997 -1.492 0.37
7.5780001 -8.4849997 -1.464 0.38
7.4759998 -8.3459997 -1.439 0.34999999
7.3769999 -8.184 -1.411 0.41999999
7.2940001 -8.0410004 -1.388 0.38
7.2119999 -7.901 -1.365 0.37
7.1329999 -7.7670002 -1.342 0.34999999
7.1420002 -7.7270002 -1.339 0.27000001
7.3670001 -7.9439998 -1.3839999 0.36000001
7.3509998 -7.8779998 -1.376 0.57999998
7.1459999 -7.612 -1.327 0.41
7.0929999 -7.507 -1.3099999 0.28999999
6.4910002 -6.724 -1.1670001 0.46000001
6.447 -6.638 -1.153 0.5
10.4 0.18000001 -1.396 0.38999999
10.376 0.212 -1.392 0.38
10.397 0.245 -1.396 0.38
10.41 0.278 -1.398 0.34
10.449 0.29499999 -1.404 0.41
10.498 0.33000001 -1.411 0.41
10.544 0.36399999 -1.419 0.41
10.602 0.39899999 -1.428 0.34999999
10.65 0.43399999 -1.4349999 0.41999999
10.694 0.47 -1.442 0.41
10.748 0.50599998 -1.451 0.41
10.812 0.52600002 -1.461 0.41
10.866 0.56199998 -1.469 0.41
10.919 0.60000002 -1.478 0.41
10.988 0.63800001 -1.489 0.34
11.032 0.67500001 -1.4960001 0.43000001
11.093 0.71399999 -1.505 0.41
11.153 0.73500001 -1.515 0.41999999
11.209 0.77399999 -1.524 0.41
11.27 0.81300002 -1.534 0.41999999
11.327 0.85299999 -1.543 0.41
11.393 0.89399999 -1.553 0.34999999
11.437 0.93400002 -1.5599999 0.41999999
11.488 0.97399998 -1.569 0.40000001
11.551 0.99699998 -1.579 0.38999999
11.623 1.04 -1.59 0.41999999
11.676 1.082 -1.599 0.38999999
11.732 1.124 -1.608 0.40000001
11.801 1.168 -1.619 0.38
11.864 1.212 -1.63 0.44999999
11.923 1.255 -1.6390001 0.36000001
11.973 1.28 -1.647 0.44
12.022 1.323 -1.655 0.43000001
12.023 1.3609999 -1.656 0.38
2.589 7.1059999 -0.96100003 0.27000001
2.576 7.1399999 -0.96499997 0.44
2.549 7.1350002 -0.963 0.2
2.4890001 7.039 -0.94599998 0.31999999
2.4760001 7.0370002 -0.94499999 0.50999999
2.4760001 7.1069999 -0.95499998 0.23
2.4159999 7.0079999 -0.93800002 0.14
2.3770001 6.9650002 -0.93000001 0.38999999
2.3640001 6.9990001 -0.93400002 0.41
2.2739999 6.8769999 -0.912 0.19
2.2679999 6.895 -0.91399997 0.47999999
2.244 6.895 -0.91299999 0.16
2.171 6.8179998 -0.89899999 0.30000001
2.152 6.8309999 -0.89999998 0.28999999
2.063 6.7340002 -0.88099998 0.34999999
2.049 6.7649999 -0.88499999 0.23
1.951 6.6669998 -0.866 0.31999999
1.9349999 6.6919999 -0.87 0.16
1.851 6.5960002 -0.852 0.41
1.8279999 6.5949998 -0.85100001 0.34
1.742 6.5240002 -0.83700001 0.27000001
1.722 6.5310001 -0.83700001 0.20999999
1.646 6.4489999 -0.82200003 0.22
1.625 6.4499998 -0.82099998 0.36000001
1.609 6.4720001 -0.824 0.23999999
1.5319999 6.3769999 -0.80699998 0.25
1.512 6.3839998 -0.80699998 0.31999999
1.4119999 6.3140001 -0.79299998 0.27000001
1.403 6.3200002 -0.79400003 0.23999999
1.326 6.256 -0.78200001 0.2
1.3099999 6.2729998 -0.78399998 0.36000001
1.2029999 6.204 -0.76999998 0.30000001
0.60900003 12.013 -1.645 0.31999999
-0.54100001 8.5319996 -1.112 0.44999999
-2.4979999 11.619 -1.623 0.31
-2.536 11.619 -1.624 0.47999999
-2.553 11.611 -1.624 0.38
-2.5869999 11.591 -1.622 0.46000001
-2.6259999 11.595 -1.624 0.31999999
-2.6570001 11.563 -1.62 0.51999998
-2.7090001 11.622 -1.631 0.33000001
-2.7349999 11.57 -1.624 0.47999999
-2.763 11.522 -1.618 0.31
-2.786 11.541 -1.6210001 0.62
-2.8239999 11.538 -1.622 0.34
-2.8599999 11.529 -1.622 0.41
-2.898 11.528 -1.623 0.37
-1.652 6.4390001 -0.82099998 0.38999999
-1.719 6.5320001 -0.83700001 0.44999999
-1.777 6.625 -0.85299999 0.50999999
-1.857 6.7550001 -0.87599999 0.55000001
-1.883 6.7659998 -0.87800002 0.17
-1.932 6.8629999 -0.89499998 0.55000001
-1.9960001 6.9640002 -0.912 0.54000002
-2.03 7 -0.91900003 0.14
-2.073 7.0679998 -0.93099999 0.41
-2.1229999 7.1539998 -0.94599998 0.25
-2.151 7.1659999 -0.949 0.30000001
-2.211 7.2839999 -0.96899998 0.43000001
-2.2249999 7.29 -0.97000003 0.31
-2.2780001 7.382 -0.986 0.38999999
-2.3310001 7.473 -1.002 0.28
-2.3629999 7.4920001 -1.006 0.38
-2.4200001 7.5900002 -1.023 0.34999999
-2.4630001 7.6440001 -1.033 0.34999999
-2.5079999 7.7010002 -1.043 0.36000001
-2.556 7.8060002 -1.061 0.38
-2.6140001 7.901 -1.077 0.43000001
-2.6670001 7.9770002 -1.091 0.25
-2.7119999 8.0290003 -1.101 0.47
-2.777 8.1400003 -1.12 0.44
-2.8399999 8.2399998 -1.138 0.34
-2.8929999 8.309 -1.15 0.44999999
-2.95 8.3879995 -1.165 0.40000001
-2.994 8.4729996 -1.179 0.33000001
-3.0650001 8.5880003 -1.199 0.37
-3.1300001 8.6850004 -1.217 0.40000001
-3.198 8.7880001 -1.235 0.38999999
-3.27 8.901 -1.255 0.37
-3.3440001 9.0150003 -1.275 0.31
-3.398 9.1169996 -1.293 0.38
-3.473 9.2309999 -1.313 0.34
-3.5420001 9.3269997 -1.331 0.46000001
-3.6229999 9.4519997 -1.353 0.25
-3.6930001 9.5439997 -1.37 0.51999998
-3.7709999 9.658 -1.391 0.34
-3.8410001 9.7460003 -1.4069999 0.43000001
-3.905 9.8649998 -1.428 0.38
-3.9890001 9.9849997 -1.45 0.36000001
-4.072 10.102 -1.471 0.34
-4.1459999 10.194 -1.488 0.46000001
-4.2379999 10.329 -1.513 0.28999999
-4.3439999 10.493 -1.5420001 0.40000001
-4.441 10.635 -1.568 0.40000001
-4.5289998 10.797 -1.596 0.36000001
-4.6339998 10.953 -1.624 0.41
-4.7540002 11.14 -1.658 0.34999999
-4.8590002 11.289 -1.6849999 0.44999999
-4.9310002 11.359 -1.7 0.28
-4.9749999 11.361 -1.7029999 0.47999999
-5.1030002 11.557 -1.738 0.37
-5.2080002 11.746 -1.771 0.34
-5.3400002 11.943 -1.807 0.27000001
-5.4650002 12.121 -1.839 0.49000001
-5.5250001 12.153 -1.848 0.31999999
-5.553 12.114 -1.844 0.49000001
-8.2440004 -9.0240002 -1.675 0.18000001
-8.2180004 -9.0530005 -1.676 0.25
-8.1929998 -9.0830002 -1.676 0.20999999
-7.9619999 -8.8839998 -1.63 0.34
-8.0819998 -9.0740004 -1.664 0.38999999
-6.9590001 -8.2510004 -1.456 0.47999999
-6.948 -8.2639999 -1.457 0.47999999
-6.9289999 -8.2939997 -1.4579999 0.47
-4.8169999 -10.23 -1.535 0.46000001
-4.7940001 -10.265 -1.538 0.44999999
-4.7540002 -10.264 -1.535 0.73000002
-2.3870001 -10.597 -1.467 0.38999999
-2.355 -10.61 -1.467 0.34999999
-2.319 -10.683 -1.477 0.20999999
7.947 -9.1350002 -1.6569999 0.33000001
7.9060001 -9.0310001 -1.641 0.34
7.8109999 -8.8649998 -1.613 0.33000001
7.678 -8.658 -1.575 0.36000001
7.5819998 -8.4949999 -1.5470001 0.34999999
7.4819999 -8.3299999 -1.518 0.36000001
7.368 -8.177 -1.489 0.38999999
7.2820001 -8.0299997 -1.4630001 0.34999999
7.1880002 -7.8759999 -1.436 0.37
7.0939999 -7.723 -1.409 0.38999999
6.9899998 -7.5609999 -1.38 0.38
6.9260001 -7.4450002 -1.36 0.38
6.914 -7.408 -1.355 0.36000001
6.9400001 -7.3889999 -1.355 0.36000001
6.9710002 -7.3759999 -1.357 0.31
7.0170002 -7.3779998 -1.362 0.38
6.7379999 -6.994 -1.29 0.28999999
6.7379999 -6.9499998 -1.285 0.41999999
6.6040001 -6.7909999 -1.2539999 0.57999998
6.5279999 -6.6690001 -1.232 0.23999999
10.123 -0.094999999 -1.353 0.41
10.151 -0.063000001 -1.358 0.38
10.137 -0.030999999 -1.355 0.38999999
9.948 0.017999999 -1.454 0.36000001
9.9919996 0.050000001 -1.461 0.37
10.041 0.082000002 -1.469 0.38
10.07 0.097999997 -1.474 0.41
10.127 0.13 -1.483 0.36000001
10.164 0.163 -1.489 0.41999999
10.217 0.19599999 -1.497 0.34999999
10.268 0.229 -1.506 0.41
10.324 0.26300001 -1.515 0.38999999
10.371 0.29699999 -1.522 0.38999999
10.433 0.315 -1.5319999 0.38999999
10.472 0.34999999 -1.539 0.40000001
10.52 0.384 -1.546 0.38
10.566 0.419 -1.554 0.38
10.624 0.45500001 -1.563 0.36000001
10.676 0.491 -1.572 0.41999999
10.727 0.528 -1.58 0.34
10.798 0.54799998 -1.592 0.34999999
10.851 0.58499998 -1.6 0.38999999
10.904 0.62300003 -1.609 0.38
10.959 0.66000003 -1.618 0.34
11.007 0.69800001 -1.626 0.38999999
11.058 0.736 -1.635 0.37
11.074 0.755 -1.637 0.34
11.097 0.792 -1.641 0.36000001
2.6630001 7.1729999 -1.09 0.31
2.562 7.1020002 -1.074 0.34999999
2.5380001 7.1069999 -1.073 0.38999999
2.477 7.04 -1.0599999 0.18000001
2.451 7.0370002 -1.058 0.55000001
2.4300001 7.0479999 -1.058 0.31
2.359 6.9829998 -1.045 0.22
2.329 6.9640002 -1.041 0.56999999
2.2449999 6.8920002 -1.026 0.34999999
2.22 6.8870001 -1.024 0.34999999
2.158 6.8429999 -1.0140001 0.14
2.128 6.823 -1.01 0.41999999
2.1170001 6.823 -1.0089999 0.5
2.096 6.8330002 -1.01 0.23
2.0480001 6.7509999 -0.995 0.41
2.0309999 6.77 -0.99699998 0.27000001
2.0020001 6.75 -0.99299997 0.51999998
1.972 6.7280002 -0.98799998 0.34999999
1.936 6.6810002 -0.97899997 0.34
1.921 6.6669998 -0.97600001 0.38
1.898 6.665 -0.97500002 0.5
1.869 6.6430001 -0.97000003 0.28999999
1.836 6.6069999 -0.963 0.37
1.814 6.6069999 -0.96200001 0.27000001
1.789 6.5949998 -0.95999998 0.56
1.768 6.6030002 -0.95999998 0.37
1.7460001 6.5599999 -0.95200002 0.33000001
1.717 6.5320001 -0.94700003 0.25999999
1.692 6.5209999 -0.94400001 0.58999997
1.6720001 6.526 -0.94400001 0.36000001
1.649 6.5219998 -0.94300002 0.28999999
1.613 6.4629998 -0.93199998 0.31999999
1.585 6.4400001 -0.92799997 0.47
1.582 6.4710002 -0.93199998 0.36000001
1.516 6.3730001 -0.91500002 0.19
1.501 6.3969998 -0.91799998 0.28
1.477 6.3839998 -0.91500002 0.54000002
1.41 6.322 -0.903 0.22
1.3890001 6.3169999 -0.90200001 0.44999999
1.368 6.3179998 -0.90100002 0.40000001
1.29 6.2389998 -0.88599998 0.33000001
1.2690001 6.2350001 -0.88499999 0.5
1.26 6.2410002 -0.88599998 0.28999999
1.189 6.1929998 -0.87599999 0.25
1.165 6.1690001 -0.87099999 0.47
1.147 6.1789999 -0.87199998 0.34
1.0880001 6.1290002 -0.86299998 0.19
1.064 6.1069999 -0.85900003 0.36000001
1.044 6.105 -0.85799998 0.47999999
0.98799998 6.0599999 -0.85000002 0.13
0.96899998 6.0630002 -0.85000002 0.28
0.94499999 6.033 -0.84399998 0.56
0.92799997 6.0500002 -0.84600002 0.27000001
0.85799998 5.9699998 -0.83200002 0.28999999
0.85100001 5.9850001 -0.83399999 0.28
0.829 5.9619999 -0.82999998 0.60000002
0.74800003 5.9250002 -0.82300001 0.27000001
0.727 5.9060001 -0.81900001 0.47999999
0.71700001 5.8990002 -0.81800002 0.55000001
0.64999998 5.8049998 -0.80199999 0.13
0.63700002 5.855 -0.81 0.28999999
0.616 5.8309999 -0.80599999 0.56999999
0.59899998 5.8429999 -0.80699998 0.31999999
0.52999997 5.7979999 -0.79900002 0.34999999
0.51099998 5.7919998 -0.79799998 0.49000001
0.49000001 5.7620001 -0.79299998 0.58999997
0.42300001 5.717 -0.78500003 0.31999999
0.40400001 5.6989999 -0.78200001 0.41999999
0.38699999 5.7059999 -0.78299999 0.36000001
0.30500001 5.6820002 -0.778 0.23
0.285 5.645 -0.77200001 0.51999998
0.186 5.5960002 -0.764 0.44999999
-1.101 5.5419998 -0.77200001 0.41
-1.176 5.6370001 -0.78899997 0.46000001
-1.196 5.6409998 -0.79000002 0.38999999
-1.237 5.7480001 -0.80800003 0.20999999
-1.256 5.7459998 -0.80800003 0.60000002
-1.312 5.8649998 -0.829 0.44
-1.33 5.8590002 -0.82800001 0.51999998
-1.381 5.9970002 -0.852 0.33000001
-1.393 5.9640002 -0.847 0.61000001
-1.444 6.0900002 -0.86799997 0.20999999
-1.4579999 6.066 -0.86500001 0.62
-1.489 6.1500001 -0.87900001 0.16
-1.516 6.178 -0.88499999 0.57999998
-1.548 6.223 -0.89300001 0.30000001
-1.587 6.2950001 -0.90499997 0.40000001
-1.6109999 6.3049998 -0.90799999 0.41
-1.658 6.4029999 -0.92500001 0.41
-1.666 6.3909998 -0.92299998 0.47999999
-1.717 6.5040002 -0.94300002 0.25
-1.7410001 6.5100002 -0.94499999 0.56999999
-1.7920001 6.6149998 -0.963 0.30000001
-1.816 6.6199999 -0.96499997 0.44999999
-1.87 6.7329998 -0.98400003 0.31999999
-1.892 6.7309999 -0.98500001 0.43000001
-1.931 6.8260002 -1.001 0.37
-1.964 6.8600001 -1.008 0.40000001
-2.007 6.928 -1.02 0.47
-2.0409999 6.961 -1.026 0.28999999
-2.0899999 7.0450001 -1.0420001 0.5
-2.1259999 7.0840001 -1.049 0.34999999
-2.1670001 7.138 -1.059 0.43000001
-2.214 7.2519999 -1.079 0.40000001
-2.244 7.2670002 -1.082 0.36000001
-2.2950001 7.3499999 -1.097 0.37
-2.345 7.428 -1.112 0.41999999
-2.3870001 7.4790001 -1.1210001 0.28
-2.4430001 7.5689998 -1.138 0.5
-2.4909999 7.6360002 -1.15 0.34
-2.5280001 7.7069998 -1.163 0.30000001
-2.5840001 7.7930002 -1.178 0.46000001
-2.6440001 7.8899999 -1.196 0.28999999
-2.7060001 7.9910002 -1.214 0.36000001
-2.7520001 8.0430002 -1.224 0.51999998
-2.8139999 8.1379995 -1.242 0.34
-2.8710001 8.2189999 -1.257 0.37
-2.9219999 8.3240004 -1.276 0.44999999
-2.9879999 8.4250002 -1.294 0.38
-3.053 8.5209999 -1.312 0.33000001
-3.119 8.6190004 -1.33 0.43000001
-3.184 8.7130003 -1.348 0.38999999
-3.253 8.8140001 -1.367 0.38999999
-3.306 8.915 -1.3839999 0.43000001
-3.3800001 9.026 -1.405 0.37
-3.4549999 9.1389999 -1.426 0.31999999
-3.5309999 9.25 -1.447 0.41
-3.6059999 9.3579998 -1.467 0.33000001
-3.681 9.4610004 -1.487 0.38999999
-3.76 9.5740004 -1.508 0.36000001
-3.8210001 9.6859999 -1.528 0.34999999
-3.9059999 9.8100004 -1.551 0.34
-3.993 9.9350004 -1.575 0.34999999
-4.086 10.074 -1.601 0.36000001
-4.1659999 10.178 -1.6210001 0.40000001
-4.2639999 10.325 -1.649 0.36000001
-4.3410001 10.417 -1.6670001 0.33000001
-4.401 10.467 -1.678 0.36000001
-4.4660001 10.577 -1.698 0.34
-4.5700002 10.726 -1.726 0.28999999
-4.6739998 10.875 -1.7539999 0.25
-4.7849998 11.037 -1.785 0.31999999
-4.8369999 11.06 -1.7920001 0.40000001
-4.9180002 11.15 -1.8099999 0.31
-4.928 11.126 -1.807 0.44999999
-4.9699998 11.125 -1.8099999 0.43000001
-4.7550001 -10.244 -1.668 0.34999999
-4.7259998 -10.266 -1.669 0.63
-2.395 -10.581 -1.598 0.34
-2.3610001 -10.587 -1.597 0.33000001
-2.3269999 -10.588 -1.596 0.5
-2.296 -10.609 -1.598 0.25999999
-2.299 -10.706 -1.614 0.2
7.3920002 -8.349 -1.646 0.31999999
7.4130001 -8.3199997 -1.6440001 0.31999999
7.415 -8.2700005 -1.6390001 0.30000001
7.421 -8.2250004 -1.6339999 0.34999999
7.3569999 -8.1289997 -1.6160001 0.31999999
7.2589998 -7.9699998 -1.587 0.31999999
7.1810002 -7.835 -1.562 0.31999999
7.0910001 -7.6890001 -1.536 0.34
6.9749999 -7.5170002 -1.503 0.37
6.8860002 -7.375 -1.477 0.36000001
6.8169999 -7.256 -1.456 0.38
6.7129998 -7.1230001 -1.429 0.37
6.6409998 -7.0040002 -1.4069999 0.34
6.5689998 -6.8839998 -1.386 0.36000001
6.5029998 -6.7729998 -1.3660001 0.43000001
6.4689999 -6.6960001 -1.353 0.38
6.4829998 -6.6680002 -1.352 0.36000001
6.474 -6.638 -1.347 0.30000001
6.5009999 -6.6240001 -1.348 0.33000001
6.4710002 -6.553 -1.337 0.46000001
6.4499998 -6.4899998 -1.3279999 0.28999999
6.3390002 -6.3390002 -1.298 0.47
6.3010001 -6.2620001 -1.285 0.28999999
6.1069999 -6.0139999 -1.2359999 0.41999999
6.0040002 -5.8769999 -1.209 0.34
8.3699999 -1.059 -1.214 0.36000001
8.8549995 -0.81 -1.2869999 0.34
9.4729996 -0.37099999 -1.38 0.38999999
9.4540005 -0.34099999 -1.377 0.36000001
9.4650002 -0.31099999 -1.3789999 0.34
9.4779997 -0.28200001 -1.38 0.40000001
9.5080004 -0.26800001 -1.385 0.36000001
9.552 -0.23899999 -1.392 0.38
9.5810003 -0.20900001 -1.396 0.44999999
9.6289997 -0.18000001 -1.404 0.36000001
9.6730003 -0.15000001 -1.411 0.43000001
9.7220001 -0.12 -1.419 0.34999999
9.7580004 -0.090000004 -1.424 0.41999999
9.8059998 -0.075000003 -1.432 0.36000001
9.8549995 -0.044 -1.4400001 0.37
9.8929996 -0.013 -1.446 0.41999999
9.9689999 0.024 -1.556 0.34999999
10.012 0.055 -1.563 0.38999999
10.063 0.086999997 -1.572 0.34
10.104 0.119 -1.579 0.38999999
10.157 0.15099999 -1.5880001 0.34
10.192 0.168 -1.594 0.38999999
10.241 0.20100001 -1.602 0.36000001
10.297 0.234 -1.612 0.34999999
10.342 0.26699999 -1.619 0.34
10.39 0.301 -1.628 0.38999999
10.448 0.336 -1.638 0.36000001
10.461 0.36899999 -1.64 0.33000001
10.496 0.38699999 -1.646 0.36000001
2.6830001 7.1680002 -1.165 0.28999999
2.6630001 7.1849999 -1.1670001 0.34999999
2.573 7.1129999 -1.15 0.50999999
2.543 7.1009998 -1.147 0.25999999
2.471 7.039 -1.133 0.31
2.4449999 7.0349998 -1.131 0.46000001
2.3540001 6.9499998 -1.112 0.34
2.336 6.9689999 -1.114 0.38999999
2.2550001 6.8730001 -1.095 0.19
2.237 6.8889999 -1.096 0.50999999
2.1500001 6.8049998 -1.0779999 0.30000001
2.1300001 6.8150001 -1.079 0.36000001
2.0369999 6.743 -1.063 0.31
2.013 6.7379999 -1.061 0.43000001
1.932 6.6589999 -1.044 0.38999999
1.911 6.6669998 -1.044 0.38
1.824 6.5970001 -1.029 0.34
1.812 6.592 -1.028 0.46000001
1.727 6.527 -1.013 0.20999999
1.701 6.5100002 -1.0089999 0.56
1.63 6.447 -0.99599999 0.30000001
1.609 6.448 -0.995 0.25
1.5880001 6.4530001 -0.995 0.50999999
1.564 6.4429998 -0.99299997 0.37
1.538 6.421 -0.98799998 0.34
1.5039999 6.3720002 -0.97899997 0.30000001
1.483 6.3709998 -0.97799999 0.41
1.474 6.375 -0.97799999 0.41999999
1.449 6.3600001 -0.97500002 0.33000001
1.421 6.3299999 -0.96899998 0.25999999
1.396 6.3099999 -0.96399999 0.41
1.374 6.3060002 -0.963 0.46000001
1.353 6.3049998 -0.96200001 0.33000001
1.34 6.2930002 -0.95999998 0.30000001
1.308 6.2420001 -0.94999999 0.34
1.2869999 6.2379999 -0.949 0.31
1.268 6.2420001 -0.949 0.43000001
1.248 6.2480001 -0.949 0.33000001
1.225 6.2319999 -0.94599998 0.34
1.194 6.178 -0.93599999 0.37
1.181 6.1669998 -0.93400002 0.34
1.166 6.1900001 -0.93699998 0.47
1.149 6.2090001 -0.94 0.36000001
1.09 6.1030002 -0.92000002 0.20999999
1.068 6.0929999 -0.91799998 0.40000001
1.05 6.1040001 -0.91900003 0.41
0.99000001 6.04 -0.90700001 0.19
0.97100002 6.0430002 -0.90700001 0.28
0.95300001 6.0500002 -0.90799999 0.56
0.87199998 5.967 -0.89200002 0.28
0.85399997 5.9749999 -0.89300001 0.34999999
0.83399999 5.9640002 -0.88999999 0.51999998
0.75800002 5.8990002 -0.87800002 0.30000001
0.73900002 5.8969998 -0.87699997 0.56
0.71899998 5.8860002 -0.875 0.14
0.65799999 5.8449998 -0.86699998 0.25
0.64700001 5.8330002 -0.86400002 0.38
0.62800002 5.8309999 -0.86400002 0.54000002
0.54900002 5.7750001 -0.85299999 0.31
0.52999997 5.7729998 -0.852 0.34
0.51999998 5.7639999 -0.85100001 0.54000002
0.44299999 5.7090001 -0.83999997 0.25999999
0.42500001 5.7129998 -0.84100002 0.30000001
0.40599999 5.704 -0.83899999 0.56
0.39700001 5.7049999 -0.83899999 0.2
0.32100001 5.6329999 -0.82599998 0.34
0.303 5.6370001 -0.82700002 0.38999999
0.28600001 5.6420002 -0.82700002 0.50999999
0.221 5.5840001 -0.81699997 0.27000001
0.20299999 5.5809999 -0.81599998 0.30000001
0.185 5.566 -0.81400001 0.5
0.177 5.5700002 -0.81400001 0.44999999
0.105 5.5110002 -0.80400002 0.31999999
0.088 5.5089998 -0.80400002 0.36000001
0.071000002 5.5229998 -0.80599999 0.56
-0.0080000004 5.441 -0.792 0.33000001
-0.025 5.4400001 -0.792 0.31999999
-0.041999999 5.4460001 -0.79299998 0.57999998
-0.118 5.382 -0.78299999 0.23999999
-0.13500001 5.3779998 -0.78200001 0.54000002
-0.152 5.3769999 -0.78200001 0.25
-0.87 5.079 -0.74400002 0.34999999
-0.90700001 5.198 -0.76499999 0.16
-0.95999998 5.309 -0.78500003 0.44
-0.977 5.3039999 -0.78399998 0.41
-1.0319999 5.4180002 -0.80500001 0.55000001
-1.039 5.4089999 -0.80400002 0.51999998
-1.074 5.4980001 -0.81900001 0.18000001
-1.096 5.52 -0.824 0.46000001
-1.114 5.5170002 -0.824 0.37
-1.153 5.6209998 -0.84200001 0.25
-1.175 5.6389999 -0.84600002 0.55000001
-1.191 5.6719999 -0.852 0.13
-1.222 5.7319999 -0.86299998 0.38
-1.245 5.7509999 -0.86699998 0.47999999
-1.283 5.8439999 -0.884 0.2
-1.3 5.8319998 -0.88200003 0.61000001
-1.33 5.882 -0.89200002 0.20999999
-1.363 5.941 -0.903 0.41
-1.376 5.954 -0.90499997 0.47999999
-1.423 6.073 -0.92699999 0.20999999
-1.4400001 6.059 -0.92500001 0.55000001
-1.5089999 6.1820002 -0.94800001 0.52999997
-1.536 6.2059999 -0.95300001 0.38
-1.573 6.2719998 -0.96499997 0.36000001
-1.592 6.3060002 -0.97100002 0.38
-1.632 6.381 -0.98500001 0.41999999
-1.6569999 6.395 -0.98900002 0.34
-1.707 6.5079999 -1.0089999 0.37
-1.724 6.487 -1.007 0.47
-1.771 6.5830002 -1.024 0.30000001
-1.801 6.6139998 -1.031 0.44
-1.841 6.7189999 -1.05 0.18000001
-1.8609999 6.71 -1.049 0.5
-1.908 6.7989998 -1.066 0.25
-1.9349999 6.8140001 -1.069 0.47999999
-1.984 6.9029999 -1.086 0.31
-2.0150001 6.928 -1.092 0.38999999
-2.066 7.0240002 -1.11 0.36000001
-2.079 7.0289998 -1.1109999 0.38
-2.1359999 7.1389999 -1.131 0.44
-2.168 7.165 -1.137 0.22
-2.2149999 7.237 -1.151 0.49000001
-2.2620001 7.3109999 -1.165 0.30000001
-2.2980001 7.348 -1.173 0.36000001
-2.3429999 7.4489999 -1.192 0.38
-2.3870001 7.5100002 -1.204 0.38
-2.4300001 7.5599999 -1.214 0.37
-2.4890001 7.664 -1.234 0.37
-2.5350001 7.723 -1.2460001 0.34999999
-2.5810001 7.7810001 -1.257 0.37
-2.6440001 7.8909998 -1.278 0.18000001
-2.688 7.9819999 -1.295 0.56
-2.74 8.0539999 -1.309 0.41
-2.7969999 8.1370001 -1.326 0.38
-2.855 8.2209997 -1.342 0.38
-2.9159999 8.3140001 -1.3609999 0.37
-2.977 8.4060001 -1.3789999 0.33000001
-3.039 8.4969997 -1.397 0.36000001
-3.109 8.6059999 -1.418 0.38999999
-3.1530001 8.6859999 -1.433 0.34
-3.217 8.7779999 -1.451 0.31
-3.2869999 8.8850002 -1.472 0.47
-3.358 8.9890003 -1.493 0.30000001
-3.4300001 9.0970001 -1.5140001 0.31999999
-3.4960001 9.1859999 -1.5319999 0.38
-3.5550001 9.2959995 -1.553 0.38
-3.6329999 9.4139996 -1.577 0.31999999
-3.707 9.5170002 -1.597 0.34
-3.783 9.6219997 -1.618 0.43000001
-3.8929999 9.8120003 -1.655 0.34
-3.9449999 9.8549995 -1.665 0.31
-3.987 9.8699999 -1.67 0.27000001
-4.039 9.9530001 -1.686 0.36000001
-4.1269999 10.08 -1.712 0.31999999
-4.2119999 10.198 -1.7359999 0.31999999
-4.2979999 10.316 -1.7589999 0.28
-4.3800001 10.421 -1.781 0.31
-4.4310002 10.45 -1.789 0.44999999
-4.4899998 10.496 -1.8 0.37
7.0830002 -7.7979999 -1.651 0.28
7.0890002 -7.7550001 -1.647 0.34
7.0799999 -7.7210002 -1.641 0.30000001
7.0409999 -7.6300001 -1.626 0.28
6.9510002 -7.4850001 -1.597 0.31999999
6.849 -7.3270001 -1.566 0.30000001
6.7639999 -7.191 -1.54 0.38
6.6630001 -7.039 -1.5089999 0.31999999
6.573 -6.921 -1.484 0.34999999
6.5139999 -6.816 -1.465 0.37
6.4489999 -6.704 -1.443 0.36000001
6.3720002 -6.5830002 -1.42 0.34999999
6.3070002 -6.474 -1.399 0.36000001
6.237 -6.362 -1.377 0.37
6.1939998 -6.277 -1.362 0.38999999
6.1760001 -6.2399998 -1.355 0.36000001
6.1820002 -6.2059999 -1.352 0.33000001
6.2189999 -6.2049999 -1.3559999 0.28999999
6.2750001 -6.2220001 -1.365 0.36000001
6.223 -6.131 -1.348 0.37
6.2129998 -6.0819998 -1.341 0.31999999
6.1430001 -5.9759998 -1.3200001 0.47999999
5.9549999 -5.7729998 -1.274 0.31
5.8460002 -5.631 -1.244 0.41999999
5.7750001 -5.5279999 -1.223 0.31999999
8.8409996 -0.82599998 -1.372 0.38999999
8.868 -0.80000001 -1.376 0.44999999
8.8450003 -0.76999998 -1.372 0.34999999
8.8470001 -0.74199998 -1.372 0.37
8.8509998 -0.71499997 -1.372 0.36000001
8.8660002 -0.70200002 -1.375 0.36000001
8.8859997 -0.67500001 -1.378 0.34
8.908 -0.64899999 -1.381 0.37
8.9530001 -0.62400001 -1.388 0.40000001
8.9940004 -0.59899998 -1.395 0.38999999
9.0200005 -0.57200003 -1.399 0.38999999
9.0629997 -0.546 -1.406 0.38999999
9.1009998 -0.53399998 -1.4119999 0.34999999
9.1339998 -0.50700003 -1.418 0.41
9.1709995 -0.48100001 -1.424 0.38999999
9.2139997 -0.454 -1.431 0.40000001
9.2550001 -0.42699999 -1.437 0.38999999
9.2930002 -0.40000001 -1.443 0.40000001
9.335 -0.38699999 -1.45 0.38999999
9.3699999 -0.359 -1.456 0.38999999
9.4110003 -0.331 -1.4630001 0.40000001
9.4490004 -0.303 -1.469 0.38
9.493 -0.27399999 -1.476 0.37
9.5240002 -0.245 -1.4809999 0.37
9.5740004 -0.21699999 -1.49 0.37
9.6110001 -0.20299999 -1.4960001 0.36000001
9.6529999 -0.17299999 -1.503 0.36000001
9.7030001 -0.14399999 -1.511 0.36000001
9.743 -0.114 -1.518 0.34999999
9.7889996 -0.083999999 -1.526 0.36000001
9.8299999 -0.052999999 -1.533 0.41999999
9.8760004 -0.023 -1.54 0.34
9.9250002 -0.0070000002 -1.549 0.38999999
9.9160004 0.015 -1.635 0.34999999
2.7620001 7.2579999 -1.253 0.31999999
3.0710001 8.1560001 -1.421 0.51999998
2.658 7.1869998 -1.235 0.43000001
2.5650001 7.1059999 -1.216 0.31999999
2.5469999 7.125 -1.2180001 0.28
2.4679999 7.0440001 -1.199 0.15000001
2.4489999 7.0609999 -1.201 0.51999998
2.4400001 7.0689998 -1.202 0.31999999
2.3570001 6.9699998 -1.181 0.28999999
2.336 6.9809999 -1.181 0.52999997
2.234 6.888 -1.16 0.34
2.223 6.8920002 -1.16 0.34
2.1289999 6.8179998 -1.142 0.36000001
2.108 6.8270001 -1.143 0.28
2.0380001 6.7490001 -1.126 0.20999999
2.0239999 6.7410002 -1.124 0.5
1.936 6.6750002 -1.108 0.22
1.915 6.6789999 -1.108 0.46000001
1.893 6.6810002 -1.107 0.2
1.8380001 6.605 -1.091 0.23999999
1.8150001 6.605 -1.09 0.44999999
1.795 6.6100001 -1.09 0.28999999
1.711 6.5450001 -1.075 0.30000001
1.696 6.5289998 -1.072 0.43000001
1.612 6.454 -1.0549999 0.25
1.592 6.4580002 -1.0549999 0.51999998
1.52 6.382 -1.039 0.23999999
1.501 6.3920002 -1.04 0.31
1.477 6.3800001 -1.0369999 0.50999999
1.403 6.3260002 -1.025 0.23
1.38 6.3169999 -1.022 0.47999999
1.374 6.336 -1.025 0.27000001
1.295 6.256 -1.0089999 0.28
1.273 6.2470002 -1.006 0.44999999
1.2539999 6.2579999 -1.008 0.33000001
1.238 6.2800002 -1.011 0.41999999
1.221 6.2410002 -1.003 0.31999999
1.1900001 6.1849999 -0.99299997 0.34
1.173 6.204 -0.995 0.22
1.151 6.1939998 -0.99299997 0.51999998
1.1289999 6.184 -0.99000001 0.38999999
1.1059999 6.1659999 -0.98699999 0.36000001
1.091 6.1389999 -0.98100001 0.28
1.069 6.125 -0.97799999 0.37
1.0470001 6.1110001 -0.97500002 0.46000001
1.028 6.1139998 -0.97500002 0.38999999
1.007 6.1059999 -0.97299999 0.33000001
0.98100001 6.066 -0.96499997 0.34
0.95999998 6.0570002 -0.963 0.20999999
0.949 6.0489998 -0.96100003 0.55000001
0.93000001 6.0539999 -0.96200001 0.41
0.91000003 6.0469999 -0.95999998 0.37
0.889 6.0359998 -0.958 0.34999999
0.86199999 5.9840002 -0.94800001 0.31
0.84299999 5.9829998 -0.94700003 0.38
0.824 5.9840002 -0.94700003 0.47
0.81699997 6.0089998 -0.95099998 0.44999999
0.79500002 5.9860001 -0.94599998 0.30000001
0.76899999 5.928 -0.93599999 0.22
0.75 5.928 -0.935 0.30000001
0.72899997 5.9089999 -0.93099999 0.52999997
0.65600002 5.8460002 -0.91900003 0.23
0.63800001 5.8460002 -0.91900003 0.31999999
0.61799997 5.8379998 -0.917 0.52999997
0.54799998 5.776 -0.90499997 0.23
0.52999997 5.7859998 -0.90600002 0.30000001
0.51099998 5.7740002 -0.903 0.58999997
0.44299999 5.7160001 -0.89200002 0.17
0.42500001 5.7189999 -0.89300001 0.30000001
0.40599999 5.711 -0.89099997 0.51999998
0.38800001 5.7080002 -0.88999999 0.28999999
0.322 5.6430001 -0.87800002 0.40000001
0.30399999 5.638 -0.87699997 0.37
0.28600001 5.6409998 -0.87699997 0.38999999
0.213 5.585 -0.86699998 0.14
0.204 5.5739999 -0.86500001 0.36000001
0.18700001 5.5739999 -0.86500001 0.43000001
0.17 5.6059999 -0.87 0.18000001
0.097999997 5.5209999 -0.85500002 0.27000001
0.090000004 5.526 -0.85600001 0.27000001
