# .PCD v0.7 - Point Cloud Data file format
VERSION 0.7
FIELDS x y z intensity
SIZE 4 4 4 4
TYPE F F F F
COUNT 1 1 1 1
WIDTH 1390
HEIGHT 1
VIEWPOINT 0 0 0 1 0 0 0
POINTS 1390
DATA ascii
14.397 -2.9000001 0.70599997 0.37
14.337 -2.8410001 0.70300001 0.63999999
14.413 -2.809 0.70599997 0.31
14.455 -2.793 0.70700002 0.50999999
13.746 -2.6129999 0.68199998 0.44999999
13.943 -2.605 0.68900001 0.25999999
14.346 -2.6329999 0.70200002 0.44999999
13.764 -2.4820001 0.68199998 0.47999999
14.223 -2.5179999 0.69800001 0.38999999
14.138 -2.48 0.69499999 0.33000001
14.266 -2.4560001 0.699 0.28999999
14.954 -2.5250001 0.722 0.31999999
15.534 -2.572 0.74199998 0.41999999
15.558 -2.526 0.74199998 0.31999999
15.613 -2.484 0.74400002 0.41
15.603 -2.4319999 0.74299997 0.38
15.567 -2.402 0.74199998 0.44999999
15.264 -2.3069999 0.73100001 0.51999998
15.285 -2.2609999 0.73199999 0.30000001
15.395 -2.227 0.73500001 0.58999997
15.523 -2.1960001 0.73900002 0.20999999
15.534 -2.148 0.73900002 0.46000001
15.583 -2.1289999 0.741 0.37
15.613 -2.0829999 0.74199998 0.61000001
15.532 -2.023 0.73900002 0.31
15.56 -1.977 0.74000001 0.46000001
15.572 -1.929 0.74000001 0.28999999
15.644 -1.888 0.74199998 0.43000001
15.695 -1.844 0.74400002 0.43000001
15.911 -1.844 0.75099999 0.38999999
15.799 -1.781 0.74699998 0.31999999
15.797 -1.73 0.74599999 0.54000002
16.031 -1.704 0.75400001 0.23
16.159 -1.6670001 0.75800002 0.56
16.17 -1.6160001 0.759 0.41
16.225 -1.596 0.75999999 0.31
16.347 -1.556 0.764 0.5
16.434 -1.512 0.76700002 0.41
16.448 -1.461 0.76800001 0.38
16.576 -1.42 0.77200001 0.34999999
16.632 -1.372 0.773 0.47999999
16.646999 -1.321 0.77399999 0.33000001
16.603001 -1.291 0.77200001 0.56999999
16.698 -1.245 0.77499998 0.31999999
16.67 -1.191 0.77399999 0.38999999
16.757999 -1.1440001 0.77700001 0.44999999
16.789 -1.0930001 0.778 0.41
16.851999 -1.044 0.77999997 0.28999999
16.860001 -0.991 0.77999997 0.54000002
17.414 -0.995 0.79900002 0.5
17.205 -0.93000001 0.792 0.25
16.990999 -0.86500001 0.78399998 0.38
17.056999 -0.81400001 0.787 0.36000001
16.888 -0.75300002 0.78100002 0.34
16.724001 -0.69400001 0.77499998 0.38
16.806999 -0.671 0.778 0.37
17.471001 -0.64099997 0.80000001 0.40000001
17.503 -0.58700001 0.801 0.31
34.291 11.666 1.204 0.23999999
34.056999 11.646 1.198 0.18000001
34.030998 11.757 1.198 0.31
34.313 11.975 1.207 0.11
34.653 12.215 1.2180001 0.14
34.292 12.21 1.209 0.20999999
33.958 12.211 1.2 0.18000001
33.689999 12.175 1.193 0.16
33.778 12.327 1.197 0.44999999
33.75 12.437 1.197 0.2
33.895 12.854 1.205 0.12
34.500999 13.208 1.224 0.12
34.041 13.093 1.211 0.13
33.960999 13.185 1.21 0.090000004
34.625 13.568 1.23 0.17
60.921001 44.339001 2.279 0
59.043999 43.257999 2.22 0
56.619999 41.619999 2.1400001 0
50.095001 37.07 1.921 0.07
49.665001 36.993999 1.91 0
49.453999 37.080002 1.9069999 0
47.637001 35.952999 1.849 0
45.803001 34.796001 1.789 0.039999999
44.081001 33.708 1.733 0.079999998
42.692001 32.752998 1.687 0.18000001
0.229 8.698 0.44800001 0.33000001
0.20200001 8.7110004 0.44800001 0.46000001
0.147 8.6879997 0.447 0.36000001
0.050999999 8.6309996 0.44600001 0.55000001
-0.029999999 8.7069998 0.44800001 0.22
-0.057999998 8.7390003 0.449 0.51999998
-0.085000001 8.7510004 0.449 0.28999999
-0.098999999 8.7250004 0.44800001 0.30000001
-0.126 8.6759996 0.447 0.38
-0.153 8.6899996 0.447 0.23
-0.23899999 8.8699999 0.45199999 0.36000001
-0.27000001 8.9650002 0.45500001 0.38999999
-0.27900001 8.809 0.45100001 0
-0.30199999 8.6420002 0.44600001 0
-0.55299997 8.5190001 0.44299999 0.28
-2.8069999 17.862 0.70499998 0.38
-2.885 17.99 0.70899999 0.28999999
-2.937 17.959 0.70899999 0.31999999
-2.97 17.808001 0.70499998 0.5
-3.2579999 19.174 0.74299997 0.28999999
-3.273 19.08 0.741 0.27000001
-3.559 20.370001 0.77700001 0.23
-3.766 20.790001 0.78899997 0.38
-3.8410001 20.829 0.79100001 0.31
-3.8829999 20.688999 0.787 0.22
-3.484 18.232 0.71899998 0.30000001
-3.4990001 18.157 0.71700001 0.41
-3.6029999 18.388 0.72299999 0.30000001
-3.6389999 18.266001 0.72000003 0.33000001
-3.6900001 18.222 0.71899998 0.41999999
-3.7320001 18.135 0.71700001 0.34999999
-3.7750001 18.055 0.71499997 0.36000001
-3.7780001 17.93 0.71200001 0.30000001
-3.8670001 18.072001 0.71600002 0.23
-3.948 18.171 0.72000003 0.56999999
-4.0560002 18.393 0.72600001 0.31999999
-4.092 18.281 0.72299999 0.2
-4.0349998 17.763 0.70899999 0.34999999
-4.2270002 18.343 0.72600001 0.46000001
-4.2399998 18.268 0.72399998 0.30000001
-4.3049998 18.285999 0.72500002 0.27000001
-4.4650002 18.447001 0.73000002 0.27000001
-4.5349998 18.481001 0.73199999 0.37
-4.6420002 18.667 0.73699999 0.28999999
-4.652 18.455999 0.73199999 0.44999999
-4.7820001 18.601999 0.736 0.33000001
-4.855 18.645 0.73799998 0.27000001
-4.8990002 18.576 0.73699999 0.34
-5.0359998 18.854 0.745 0.27000001
-4.9029999 15.91 0.66600001 0.55000001
-5.013 16.089001 0.67199999 0.23999999
-5.0240002 15.947 0.66799998 0.28
-4.9959998 15.77 0.66299999 0.31999999
-5.0609999 15.804 0.66500002 0.58999997
-5.1370001 15.869 0.667 0.23999999
-5.152 15.747 0.66399997 0.50999999
-5.2420001 15.852 0.667 0.23
-5.1950002 15.547 0.65899998 0.62
-5.316 15.745 0.66500002 0.18000001
-5.2659998 15.513 0.65899998 0.34
-5.3049998 15.468 0.65799999 0.41
-5.3439999 15.425 0.65700001 0.58999997
-21.468 18.341 0.98400003 0.23999999
-21.464001 18.280001 0.98299998 0.40000001
-21.513 18.205 0.98299998 0.33000001
-21.504 18.082001 0.98100001 0.34
-21.479 17.945999 0.97799999 0.31999999
-21.399 17.764999 0.97299999 0.25999999
-21.194 17.482 0.96399999 0.36000001
-21.191999 17.368999 0.96200001 0.31
-21.219 17.334999 0.96200001 0.47
-21.295 17.285999 0.96200001 0.36000001
-21.365999 17.233 0.963 0.31999999
-21.431 17.174999 0.963 0.28999999
-21.360001 17.007999 0.95899999 0.30000001
-21.365999 16.903 0.95700002 0.40000001
-21.417999 16.834999 0.95700002 0.30000001
-21.421 16.783001 0.95599997 0.30000001
-21.554001 16.778 0.95899999 0.44
-21.625 16.725 0.95999998 0.28999999
-21.627001 16.618 0.958 0.36000001
-21.878 16.702 0.96499997 0.31999999
-21.790001 16.525999 0.95999998 0.30000001
-21.832001 16.450001 0.95999998 0.30000001
-21.924999 16.466999 0.96200001 0.43000001
-22.211 16.572001 0.97000003 0.31
-22.280001 16.516001 0.97100002 0.33000001
-22.393 16.490999 0.97299999 0.23
-57.437 -38.842999 2.1140001 0
-56.904999 -38.743999 2.0999999 0
-57.152 -39.175999 2.1129999 0
-56.507 -38.994999 2.095 0
-56.646999 -39.223 2.102 0
-56.273998 -39.227001 2.0940001 0
-56.165001 -39.414001 2.0940001 0
-56.167 -39.679001 2.098 0
-55.714001 -39.622002 2.0869999 0
-55.513 -39.743 2.085 0
-55.346001 -39.886002 2.0829999 0
-55.139999 -39.869999 2.0780001 0
-55.028999 -40.054001 2.079 0
-55.678001 -40.792999 2.105 0
-55.900002 -41.499001 2.122 0
-54.896 -41.425999 2.098 0
-38.314999 -30.171 1.549 0.13
-38.441002 -30.466 1.556 0.11
-38.173 -30.448999 1.55 0.14
-37.712002 -30.277 1.538 0.12
-37.876999 -30.605 1.5470001 0
-37.875 -30.799999 1.55 0
-37.332001 -30.457001 1.533 0
-37.513 -30.801001 1.5420001 0.07
-37.514 -30.999001 1.546 0.15000001
-37.301998 -31.021999 1.5420001 0
-37.674 -31.531 1.559 0.16
-37.408001 -31.509001 1.553 0
-37.279999 -31.601999 1.552 0
-37.219002 -31.652 1.551 0
-37.417999 -32.022999 1.562 0
-36.761002 -31.662001 1.5420001 0
-36.823002 -32.120998 1.551 0.12
-12.177 -14.312 0.72500002 0.2
-12.092 -14.303 0.72299999 0.28
-11.821 -14.072 0.71399999 0.2
-11.812 -14.152 0.71499997 0.36000001
-11.691 -14.096 0.71200001 0.18000001
-11.346 -13.769 0.699 0.18000001
-11.167 -13.596 0.69199997 0.34
-10.978 -13.453 0.68599999 0.19
-10.782 -13.298 0.67900002 0.36000001
-10.608 -13.169 0.67299998 0.2
-10.448 -13.054 0.66799998 0.37
-10.285 -12.933 0.66299999 0.2
-10.152 -12.809 0.65799999 0.37
-5.4829998 -11.088 0.54900002 0.14
37.643002 -57.990002 2.108 0
37.701 -57.68 2.102 0
37.835999 -57.491001 2.0999999 0
37.984001 -57.324001 2.098 0
38.424999 -57.595001 2.1110001 0
23.587 -35.216999 1.373 0
23.719999 -35.175999 1.374 0
20.936001 -30.624001 1.228 0.25
21.166 -30.548 1.23 0.43000001
21.01 -30.221001 1.22 0.13
20.992001 -29.992001 1.215 0.38999999
21.018 -29.83 1.211 0.23
20.885 -29.247999 1.196 0.11
20.975 -29.18 1.196 0.44999999
21.002001 -29.025 1.193 0.16
19.555 -26.933001 1.123 0.30000001
19.664 -26.903999 1.124 0.33000001
19.754999 -26.851999 1.125 0.31999999
19.681999 -26.577 1.117 0.25999999
19.631001 -26.334 1.1109999 0.20999999
19.688 -26.239 1.11 0.38999999
19.815001 -26.320999 1.114 0.20999999
19.75 -26.063999 1.107 0.17
19.666 -25.784 1.1 0.51999998
19.745001 -25.719 1.1 0.23999999
19.334 -25.021 1.077 0.22
19.320999 -24.841 1.073 0.30000001
19.539 -24.959999 1.08 0.28
19.534 -24.872999 1.0779999 0.30000001
19.648001 -24.857 1.079 0.31999999
10.313 -12.944 0.66299999 0.36000001
19.711 -24.617001 1.075 0.20999999
19.829 -24.605 1.077 0.38
19.961 -24.611 1.079 0.34
11.056 -13.526 0.68900001 0.23
11.227 -13.691 0.69499999 0.36000001
11.507 -13.945 0.70499998 0.17
11.538 -13.893 0.70499998 0.34999999
10.723 -12.826 0.66799998 0.44999999
10.909 -12.966 0.67400002 0.23
10.891 -12.862 0.67199999 0.28999999
10.947 -12.846 0.67199999 0.47999999
11.358 -13.287 0.68900001 0.34
11.347 -13.191 0.68699998 0.25
11.517 -13.303 0.69199997 0.44
11.396 -13.08 0.685 0.16
11.188 -12.76 0.67500001 0.51999998
11.859 -13.442 0.70099998 0.20999999
11.292 -12.756 0.67699999 0.34
11.366 -12.76 0.67799997 0.50999999
11.394 -12.71 0.67799997 0.30000001
11.469 -12.713 0.67900002 0.18000001
11.624 -12.805 0.68400002 0.57999998
12.557 -13.748 0.72000003 0.22
12.331 -13.415 0.70899999 0.27000001
12.458 -13.511 0.71399999 0.28999999
12.502 -13.473 0.71399999 0.31999999
12.873 -13.7 0.72500002 0.57999998
12.842 -13.496 0.72100002 0.2
12.978 -12.888 0.71100003 0.38
12.697 -12.529 0.699 0.43000001
12.74 -12.493 0.699 0.40000001
12.589 -12.267 0.69199997 0.22
12.451 -12.056 0.685 0.19
12.509 -12.074 0.68599999 0.51999998
12.553 -12.041 0.68699998 0.37
12.614 -12.023 0.68699998 0.28999999
12.531 -11.869 0.68300003 0.46000001
12.849 -12.095 0.69300002 0.36000001
12.772 -11.946 0.68900001 0.31999999
12.662 -11.806 0.68400002 0.40000001
12.661 -11.731 0.68300003 0.52999997
13.801 -12.709 0.72399998 0.23
12.864 -11.77 0.68800002 0.2
12.707 -11.553 0.68099999 0.54000002
13.115 -11.85 0.69400001 0.36000001
12.866 -11.55 0.68400002 0.14
13.38 -11.565 0.69499999 0.16
13.241 -11.372 0.68800002 0.56
13.471 -11.496 0.69499999 0.31999999
13.527 -11.471 0.69599998 0.34
13.555 -11.422 0.69599998 0.18000001
6.3990002 -5.072 0.433 0.31999999
6.3070002 -4.9660001 0.42899999 0.34
6.3010001 -4.9289999 0.428 0.34
6.303 -4.8990002 0.428 0.38999999
6.316 -4.8769999 0.428 0.31999999
6.3200002 -4.849 0.428 0.38999999
6.3590002 -4.8629999 0.42899999 0.31999999
6.3410001 -4.8169999 0.42699999 0.40000001
6.3049998 -4.7589998 0.426 0.40000001
6.2880001 -4.7150002 0.42500001 0.36000001
6.2789998 -4.677 0.42399999 0.31999999
6.2870002 -4.6529999 0.42399999 0.31
6.2989998 -4.6300001 0.42300001 0.43000001
6.3189998 -4.6300001 0.42399999 0.31999999
6.3319998 -4.6090002 0.42399999 0.34
6.3150001 -4.5669999 0.42300001 0.36000001
6.3280001 -4.546 0.42300001 0.28
6.3309999 -4.5180001 0.42199999 0.49000001
6.355 -4.5050001 0.42300001 0.31
6.3509998 -4.4720001 0.42199999 0.41
6.3520002 -4.4569998 0.42199999 0.23
6.336 -4.4169998 0.421 0.28
6.3629999 -4.4060001 0.421 0.30000001
6.3720002 -4.3829999 0.421 0.27000001
6.3759999 -4.3559999 0.421 0.52999997
6.3930001 -4.3379998 0.421 0.30000001
6.2290001 -4.2119999 0.41499999 0.34
6.223 -4.1789999 0.41499999 0.34999999
6.2290001 -4.1550002 0.414 0.31
6.217 -4.119 0.414 0.40000001
6.2620001 -4.1199999 0.41499999 0.28999999
6.2280002 -4.0700002 0.41299999 0.31999999
6.2360001 -4.0469999 0.41299999 0.41
6.2600002 -4.0489998 0.41299999 0.28999999
6.2680001 -4.026 0.41299999 0.34
6.2839999 -4.0079999 0.41299999 0.36000001
6.4029999 -4.0560002 0.417 0.38999999
6.368 -4.006 0.41499999 0.27000001
6.3590002 -3.9719999 0.41499999 0.28999999
6.3569999 -3.957 0.414 0.34999999
6.369 -3.937 0.414 0.34
6.3909998 -3.9230001 0.41499999 0.38
6.4089999 -3.9059999 0.41499999 0.36000001
6.4419999 -3.8989999 0.41600001 0.40000001
6.5139999 -3.915 0.417 0.28999999
6.4899998 -3.8729999 0.41600001 0.36000001
6.513 -3.8729999 0.417 0.34
6.5510001 -3.868 0.41800001 0.27000001
6.5120001 -3.8169999 0.41600001 0.40000001
6.5219998 -3.7950001 0.41600001 0.28
6.5320001 -3.773 0.41600001 0.33000001
6.5419998 -3.7520001 0.41600001 0.28999999
6.5359998 -3.721 0.41499999 0.40000001
6.5669999 -3.7249999 0.41600001 0.34
6.599 -3.7160001 0.417 0.43000001
6.632 -3.707 0.417 0.28999999
6.6240001 -3.6760001 0.417 0.31999999
6.6409998 -3.658 0.417 0.36000001
6.645 -3.6329999 0.417 0.34999999
6.6760001 -3.6359999 0.41800001 0.37
6.75 -3.6500001 0.419 0.31
6.7579999 -3.6259999 0.419 0.34
6.7680001 -3.6040001 0.419 0.37
6.7950001 -3.5910001 0.41999999 0.31999999
6.8540001 -3.595 0.421 0.28999999
6.8629999 -3.573 0.421 0.34
6.8600001 -3.5569999 0.421 0.31999999
6.8870001 -3.5439999 0.421 0.37
6.9089999 -3.5280001 0.42199999 0.43000001
6.9400001 -3.516 0.42199999 0.34999999
6.9629998 -3.5009999 0.42300001 0.37
6.9720001 -3.4779999 0.42300001 0.28
6.9879999 -3.4590001 0.42300001 0.36000001
7.0009999 -3.451 0.42300001 0.44
7.0819998 -3.464 0.42500001 0.31999999
7.1750002 -3.4820001 0.428 0.33000001
7.118 -3.4260001 0.426 0.33000001
7.1339998 -3.4059999 0.426 0.41
7.1810002 -3.401 0.42699999 0.37
7.2129998 -3.4030001 0.428 0.31999999
7.1620002 -3.3510001 0.426 0.28
7.1960001 -3.3399999 0.42699999 0.47999999
7.27 -3.346 0.42899999 0.31999999
7.3039999 -3.3340001 0.42899999 0.30000001
7.2579999 -3.286 0.428 0.37
7.2909999 -3.273 0.428 0.33000001
7.4180002 -3.316 0.43200001 0.41
7.4990001 -3.325 0.43399999 0.31999999
7.552 -3.3199999 0.435 0.43000001
7.5799999 -3.3039999 0.43599999 0.38
11.027 -4.7779999 0.53899997 0.34
11.126 -4.7800002 0.54100001 0.38999999
11.163 -4.7750001 0.542 0.31999999
11.136 -4.7220001 0.54100001 0.34
11.151 -4.6869998 0.54100001 0.47999999
11.226 -4.678 0.54299998 0.47999999
11.319 -4.6750002 0.54500002 0.2
11.274 -4.6149998 0.54299998 0.50999999
11.314 -4.5900002 0.54400003 0.41999999
11.507 -4.6469998 0.55000001 0.36000001
11.473 -4.592 0.54799998 0.28999999
11.565 -4.5869999 0.55000001 0.61000001
11.639 -4.5739999 0.55199999 0.25
11.654 -4.5370002 0.55199999 0.44999999
11.619 -4.4819999 0.551 0.40000001
11.643 -4.4489999 0.551 0.31999999
11.674 -4.4400001 0.55199999 0.41
11.707 -4.4099998 0.55199999 0.28999999
11.711 -4.3699999 0.55199999 0.56999999
11.667 -4.3119998 0.55000001 0.30000001
11.772 -4.309 0.55299997 0.54000002
11.827 -4.2870002 0.55400002 0.25
11.912 -4.2969999 0.55699998 0.47
11.881 -4.243 0.55500001 0.34999999
11.879 -4.2010002 0.55500001 0.44
11.956 -4.1859999 0.55699998 0.38999999
12.09 -4.1900001 0.56 0.28
12.128 -4.1609998 0.56099999 0.55000001
12.199 -4.1430001 0.56300002 0.28999999
12.244 -4.1360002 0.56400001 0.36000001
12.249 -4.0949998 0.56400001 0.62
12.066 -3.9920001 0.55800003 0.36000001
12.058 -3.947 0.55699998 0.25
11.867 -3.8429999 0.551 0.43000001
11.883 -3.8069999 0.551 0.34
11.893 -3.7690001 0.551 0.56
12.467 -3.9300001 0.56800002 0.46000001
12.441 -3.8789999 0.56699997 0.34
12.684 -3.9119999 0.57300001 0.25
12.526 -3.8199999 0.56800002 0.51999998
12.603 -3.8 0.56999999 0.36000001
12.554 -3.7420001 0.56900001 0.38999999
11.981 -3.55 0.55199999 0.30000001
12.002 -3.5150001 0.55199999 0.51999998
12.757 -3.694 0.574 0.37
12.882 -3.687 0.57700002 0.38999999
13.071 -3.697 0.58200002 0.43000001
13.015 -3.6370001 0.57999998 0.31999999
13.047 -3.602 0.58099997 0.5
13.024 -3.573 0.57999998 0.22
13.053 -3.5369999 0.57999998 0.54000002
13.181 -3.5280001 0.58399999 0.20999999
13.19 -3.4860001 0.58399999 0.54000002
13.199 -3.444 0.583 0.41
13.284 -3.421 0.58600003 0.28999999
13.287 -3.378 0.58499998 0.51999998
13.377 -3.3789999 0.588 0.25
13.345 -3.326 0.58700001 0.50999999
13.402 -3.2950001 0.588 0.36000001
13.373 -3.244 0.58700001 0.27000001
13.364 -3.197 0.58600003 0.57999998
13.434 -3.1689999 0.588 0.41
13.666 -3.1789999 0.59399998 0.23999999
13.529 -3.125 0.58999997 0.38
13.753 -3.131 0.59600002 0.43000001
13.983 -3.138 0.602 0.36000001
13.985 -3.092 0.602 0.36000001
14.001 -3.05 0.602 0.41999999
14.116 -3.029 0.60500002 0.44999999
14.164 -3.016 0.60699999 0.28999999
14.171 -2.971 0.60600001 0.44
14.231 -2.937 0.60799998 0.44999999
14.293 -2.9030001 0.60900003 0.36000001
14.23 -2.8429999 0.60699999 0.37
14.174 -2.786 0.60600001 0.38
14.412 -2.786 0.61199999 0.40000001
14.466 -2.773 0.61299998 0.36000001
14.162 -2.668 0.60500002 0.41
14.312 -2.6500001 0.60900003 0.40000001
14.027 -2.5510001 0.60000002 0.27000001
13.765 -2.4579999 0.59299999 0.33000001
13.97 -2.45 0.59799999 0.52999997
14.429 -2.5079999 0.611 0.25
13.875 -2.3659999 0.59500003 0.25
14.953 -2.503 0.625 0.34
14.939 -2.4530001 0.625 0.5
15.047 -2.4219999 0.62699997 0.27000001
15.08 -2.3789999 0.62800002 0.44999999
15.19 -2.348 0.63099998 0.28
15.239 -2.3310001 0.63200003 0.55000001
15.229 -2.28 0.63200003 0.20999999
15.218 -2.23 0.63099998 0.57999998
15.37 -2.2030001 0.63499999 0.30000001
15.347 -2.1500001 0.634 0.41
15.504 -2.1229999 0.639 0.25
15.505 -2.098 0.639 0.54000002
15.47 -2.0439999 0.63700002 0.34999999
15.502 -1.999 0.63800001 0.44999999
15.461 -1.944 0.63700002 0.36000001
15.507 -1.9 0.63800001 0.44999999
15.63 -1.8660001 0.64099997 0.41
15.735 -1.8279999 0.64399999 0.27000001
15.831 -1.8150001 0.64600003 0.47999999
15.896 -1.772 0.648 0.30000001
16.094 -1.743 0.653 0.37
16.127001 -1.6950001 0.65399998 0.41
16.103001 -1.641 0.653 0.31999999
16.18 -1.598 0.65499997 0.38999999
16.27 -1.556 0.65799999 0.43000001
16.379999 -1.54 0.66100001 0.47
16.365 -1.487 0.66000003 0.18000001
16.372999 -1.436 0.66000003 0.54000002
16.566999 -1.401 0.66500002 0.34
16.697001 -1.359 0.66900003 0.40000001
16.650999 -1.303 0.66799998 0.36000001
16.655001 -1.277 0.66799998 0.41
16.673 -1.225 0.66799998 0.34999999
16.721001 -1.176 0.66900003 0.5
16.764 -1.126 0.67000002 0.41999999
16.813999 -1.077 0.67199999 0.36000001
16.591 -1.01 0.66500002 0.23
16.618999 -0.95899999 0.66600001 0.56999999
16.714001 -0.93800002 0.66900003 0.27000001
16.518999 -0.875 0.66299999 0.34
16.789 -0.83700001 0.671 0.38
16.841999 -0.787 0.67199999 0.27000001
16.813999 -0.73199999 0.671 0.50999999
16.864 -0.68199998 0.67199999 0.19
17.481001 -0.68000001 0.68900001 0.61000001
17.556999 -0.62800002 0.69099998 0.33000001
17.521 -0.57099998 0.69 0.15000001
17.046 -0.44800001 0.67699999 0.28999999
17.042999 -0.39399999 0.67699999 0.23
34.493999 11.558 1.0369999 0.1
34.604 11.837 1.041 0
34.535999 11.874 1.04 0.12
34.166 11.867 1.0319999 0.090000004
33.951 11.912 1.028 0.14
34.410999 12.195 1.04 0.1
34.109001 12.209 1.033 0.14
33.817001 12.224 1.027 0.13
33.587002 12.201 1.022 0.13
33.539001 12.303 1.022 0.31
33.429001 12.381 1.02 0.25999999
33.347 12.47 1.0190001 0.12
33.601002 12.807 1.027 0.13
33.462002 12.874 1.025 0.31
33.502998 12.95 1.026 0.19
33.535 13.084 1.028 0
33.918999 13.357 1.039 0
33.195999 13.314 1.023 0
63.758999 46.028999 1.999 0
63.566002 46.194 1.998 0
56.891998 41.889 1.817 0
49.153 36.544998 1.603 0
49.008999 36.678001 1.602 0
47.303001 35.632999 1.557 0
46.910999 35.569 1.549 0
45.229 34.516998 1.5039999 0
43.550999 33.452 1.459 0.050000001
0.118 8.7049999 0.40700001 0.23999999
0.090000004 8.6890001 0.40599999 0.28
0.077 8.6490002 0.405 0.34999999
0.048999999 8.6499996 0.405 0.50999999
-0.12800001 8.7150002 0.40700001 0.20999999
-0.156 8.7299995 0.40700001 0.17
-0.18700001 8.8760004 0.41 0.5
-0.215 8.8830004 0.41100001 0.18000001
-0.24600001 8.9879999 0.41299999 0.44
-0.31999999 8.3879995 0.39899999 0
-2.825 17.948 0.62199998 0.31
-2.8789999 17.927999 0.62199998 0.34
-3.171 19.343 0.65499997 0.28
-3 17.955999 0.62300003 0.28999999
-3.286 19.108 0.64999998 0.28999999
-3.2149999 18.354 0.63300002 0.40000001
-3.4349999 19.245001 0.65399998 0.30000001
-3.4649999 19.070999 0.64999998 0.23999999
-3.556 19.225 0.65399998 0.25
-3.4649999 18.417999 0.63499999 0.41
-3.5369999 18.478001 0.63700002 0.23
-3.5179999 18.226999 0.63099998 0.27000001
-3.5250001 17.959 0.625 0.43000001
-3.642 18.253 0.63200003 0.2
-3.668 18.087 0.62900001 0.49000001
-3.8640001 18.745001 0.64399999 0.2
-4.1149998 19.643999 0.66500002 0.36000001
-4.0799999 18.198999 0.63300002 0.2
-4.2589998 18.721001 0.64600003 0.41999999
-4.3169999 18.440001 0.63999999 0.34
-4.3829999 18.589001 0.64300001 0.41999999
-4.4650002 18.673 0.64600003 0.2
-4.5250001 18.664 0.64600003 0.31999999
-4.6300001 18.837999 0.64999998 0.38999999
-4.6999998 18.868 0.65100002 0.22
-4.777 18.921 0.653 0.41999999
-4.835 18.9 0.653 0.25999999
-4.8600001 18.877001 0.65200001 0.28
-5.1760001 16.077 0.59299999 0.20999999
-5.1789999 16 0.59100002 0.47999999
-5.243 16.025999 0.59200001 0.31999999
-5.3790002 16.264999 0.59799999 0.41
-5.2740002 15.784 0.58700001 0.44
-5.3210001 15.76 0.58700001 0.28
-5.3150001 15.582 0.583 0.38
-21.604 18.528 0.85600001 0.38999999
-21.944 18.580999 0.86299998 0.28999999
-21.573999 18.211 0.85100001 0.23999999
-21.341999 17.9 0.84299999 0.19
-21.063999 17.556 0.833 0.30000001
-21.108 17.481001 0.83200002 0.34999999
-21.132 17.389 0.83200002 0.33000001
-21.198 17.330999 0.83200002 0.33000001
-21.339001 17.334999 0.83399999 0.34
-21.316 17.261 0.833 0.30000001
-21.316 17.15 0.83099997 0.34
-21.364 17.077999 0.83099997 0.31999999
-21.405001 17.000999 0.83099997 0.28999999
-21.395 16.884001 0.829 0.30000001
-21.429001 16.802 0.82800001 0.30000001
-21.459 16.771 0.829 0.27000001
-21.563 16.743999 0.82999998 0.33000001
-21.629999 16.687 0.82999998 0.30000001
-21.686001 16.621 0.83099997 0.28999999
-21.733 16.549999 0.82999998 0.38
-21.861 16.539 0.833 0.28
-21.941999 16.492001 0.833 0.34
-22.035 16.507999 0.83499998 0.25
-22.048 16.41 0.83399999 0.33000001
-22.18 16.4 0.83700001 0.34
-22.361 16.424999 0.83999997 0.25
-57.674 -29.847 1.687 0
-57.827999 -38.777 1.794 0
-57.241001 -39.169998 1.788 0
-56.700001 -39.325001 1.78 0
-56.595001 -39.383999 1.779 0
-55.870998 -39.931 1.772 0
-56.112999 -40.639999 1.786 0
-54.978001 -40.479 1.763 0
-54.346001 -40.277 1.749 0
-38.249001 -29.952999 1.3150001 0
-38.599998 -30.424999 1.3279999 0
-38.404999 -30.368 1.323 0
-38.105 -30.326 1.317 0
-38.285 -30.667 1.326 0
-37.966 -30.607 1.319 0
-37.657001 -30.554001 1.313 0
-37.569 -30.677999 1.313 0
-37.481998 -30.804001 1.313 0
-37.522999 -30.936001 1.316 0
-37.139 -30.816 1.307 0
-37.147999 -31.021 1.311 0
-37.071999 -31.156 1.311 0
-37.082001 -31.364 1.314 0
-36.93 -31.434999 1.313 0
-36.946999 -31.65 1.316 0
-37.248001 -32.009998 1.327 0
-37.483002 -32.417999 1.337 0
-36.976002 -32.181999 1.325 0
-15.851 -16.593 0.73100001 0.30000001
-15.743 -16.688 0.73100001 0.31
-15.701 -16.749001 0.73100001 0.20999999
-15.602 -16.855 0.73100001 0.25999999
-15.63 -16.938 0.73299998 0.18000001
-15.466 -16.865999 0.72899997 0.49000001
-6.0250001 -10.756 0.48899999 0.25999999
-6.1339998 -11.032 0.49599999 0
-6.0549998 -10.971 0.49399999 0
37.639 -59.095001 1.804 0
37.589001 -58.610001 1.794 0
37.388 -58.095001 1.7819999 0
37.486 -57.848 1.778 0
37.449001 -57.395 1.7690001 0
37.619999 -57.264 1.7690001 0
37.824001 -57.181999 1.77 0
30.584999 -45.932999 1.465 0
24.080999 -35.929001 1.193 0
24.125999 -35.875 1.193 0
23.777 -35.118999 1.174 0
23.922001 -35.095001 1.176 0
24.046 -35.040001 1.176 0.11
21.195 -30.684 1.058 0.090000004
21.358 -30.712 1.0599999 0.16
21.33 -30.57 1.057 0.12
20.979 -29.867001 1.04 0.13
21.063 -29.788 1.039 0.33000001
21.016001 -29.327999 1.03 0.11
21.062 -29.198999 1.028 0.34
21.101999 -29.062 1.026 0.19
19.799999 -27.181999 0.97399998 0.17
19.747999 -26.933001 0.96899998 0.25
19.938999 -27.014 0.97299999 0.23
20.062 -27.002001 0.97399998 0.23999999
19.740999 -26.398001 0.95899999 0.12
19.646999 -26.101 0.95200002 0.15000001
19.708 -26.011999 0.95200002 0.23
19.695 -25.91 0.94999999 0.23
19.781 -25.854 0.94999999 0.2
19.822001 -25.74 0.94800001 0.30000001
19.504 -25.164 0.93300003 0.23999999
19.638 -25.174 0.935 0.20999999
19.790001 -25.204 0.93800002 0.30000001
19.806999 -25.063999 0.93599999 0.11
19.839001 -25.023001 0.93599999 0.12
10.324 -12.875 0.58399999 0.56
10.444 -12.941 0.58700001 0.15000001
10.494 -12.919 0.58700001 0.33000001
10.674 -13.056 0.59200001 0.30000001
10.554 -12.869 0.58700001 0.36000001
11.483 -13.909 0.61900002 0.38
11.572 -13.927 0.62099999 0.23
10.715 -12.817 0.58899999 0.41
10.955 -13.02 0.59600002 0.28999999
10.997 -12.987 0.59600002 0.14
10.933 -12.829 0.59200001 0.49000001
11.385 -13.316 0.60699999 0.25
11.206 -13.024 0.60000002 0.31999999
11.599 -13.395 0.61199999 0.41
11.398 -13.08 0.60299999 0.20999999
11.398 -12.998 0.602 0.36000001
11.268 -12.769 0.59600002 0.36000001
11.393 -12.869 0.60000002 0.36000001
11.292 -12.675 0.59500003 0.38999999
11.396 -12.711 0.597 0.34
11.499 -12.745 0.59899998 0.38999999
11.858 -13.059 0.61000001 0.33000001
12.088 -13.228 0.616 0.34
12.322 -13.399 0.62300003 0.25999999
11.835 -12.83 0.60600001 0.27000001
12.41 -13.367 0.62400001 0.34999999
12.498 -13.377 0.625 0.20999999
12.816 -13.63 0.634 0.19
12.702 -13.425 0.62900001 0.14
12.973 -13.539 0.63499999 0
13.006 -12.909 0.62599999 0.12
12.579 -12.409 0.611 0.36000001
12.342 -12.099 0.602 0.36000001
12.652 -12.325 0.611 0.38999999
12.575 -12.173 0.60699999 0.20999999
12.597 -12.156 0.60699999 0.25999999
12.411 -11.902 0.60000002 0.44
12.574 -11.983 0.60399997 0.40000001
12.658 -11.987 0.60500002 0.38999999
12.63 -11.886 0.60299999 0.31999999
12.7 -11.876 0.60399997 0.34
12.729 -11.866 0.60500002 0.54000002
13.076 -12.112 0.61400002 0.25
12.972 -11.941 0.61000001 0.31
13.605 -12.443 0.62800002 0.16
12.755 -11.595 0.60100001 0.44999999
12.82 -11.58 0.602 0.41
12.87 -11.552 0.602 0.34
12.973 -11.607 0.60500002 0
13.253 -11.307 0.60500002 0.55000001
13.528 -11.468 0.61199999 0.2
13.373 -11.265 0.60699999 0.34
13.428 -11.24 0.60699999 0.55000001
13.999 -11.642 0.62300003 0.28
14.524 -12.039 0.63800001 0.30000001
14.332 -11.804 0.63099998 0
14.487 -11.855 0.63499999 0.14
6.4419999 -5.0739999 0.39500001 0.22
6.3449998 -4.9660001 0.39199999 0.31999999
6.348 -4.9369998 0.391 0.33000001
6.3449998 -4.902 0.391 0.34
6.3299999 -4.8590002 0.38999999 0.31999999
6.3439999 -4.8540001 0.38999999 0.34
6.362 -4.836 0.38999999 0.36000001
6.3740001 -4.8140001 0.38999999 0.44
6.4039998 -4.8049998 0.391 0.25999999
6.3509998 -4.7350001 0.389 0.40000001
6.3439999 -4.698 0.38800001 0.28999999
6.3299999 -4.6729999 0.38699999 0.31999999
6.3249998 -4.6389999 0.38699999 0.38
6.3369999 -4.6160002 0.38699999 0.33000001
6.3299999 -4.5809999 0.38600001 0.34
6.3390002 -4.5580001 0.38600001 0.38999999
6.3470001 -4.533 0.38600001 0.34
6.355 -4.5089998 0.38600001 0.23
6.2979999 -4.454 0.384 0.54000002
6.4349999 -4.52 0.38699999 0.2
6.4460001 -4.4970002 0.38699999 0.27000001
6.3740001 -4.4180002 0.38499999 0.30000001
6.3730001 -4.388 0.38499999 0.31999999
6.3889999 -4.369 0.38499999 0.30000001
6.402 -4.3639998 0.38499999 0.46000001
6.3730001 -4.3140001 0.384 0.23
6.263 -4.2119999 0.38 0.31999999
6.2509999 -4.1760001 0.37900001 0.37
6.2550001 -4.1500001 0.37900001 0.31999999
6.2509999 -4.119 0.37900001 0.37
6.2490001 -4.0900002 0.37799999 0.31999999
6.2519999 -4.0780001 0.37799999 0.36000001
6.2859998 -4.072 0.37900001 0.34
6.2909999 -4.0469999 0.37900001 0.31
6.4439998 -4.1160002 0.382 0.28999999
6.4089999 -4.066 0.38100001 0.31999999
6.401 -4.033 0.38100001 0.30000001
6.3769999 -3.99 0.38 0.25999999
6.3639998 -3.9679999 0.37900001 0.36000001
6.3509998 -3.9319999 0.37799999 0.28999999
6.3769999 -3.921 0.37900001 0.34
6.4169998 -3.9170001 0.37900001 0.41999999
6.434 -3.9000001 0.38 0.31999999
6.494 -3.9089999 0.38100001 0.33000001
6.585 -3.9489999 0.38299999 0.30000001
6.5560002 -3.9030001 0.382 0.34999999
6.546 -3.8699999 0.38100001 0.25
6.5300002 -3.8329999 0.38100001 0.31
6.5159998 -3.7969999 0.38 0.25
6.5110002 -3.767 0.38 0.38999999
6.5349998 -3.753 0.38 0.31999999
6.5479999 -3.747 0.38 0.28999999
6.566 -3.73 0.38 0.40000001
6.5809999 -3.7119999 0.38 0.31
6.6209998 -3.707 0.38100001 0.38
6.671 -3.707 0.382 0.27000001
6.6950002 -3.6930001 0.382 0.38
6.7150002 -3.6760001 0.38299999 0.31999999
6.7690001 -3.6919999 0.384 0.25999999
6.7589998 -3.6589999 0.38299999 0.36000001
6.776 -3.641 0.38299999 0.34
6.8140001 -3.6329999 0.384 0.31999999
6.8520002 -3.6259999 0.38499999 0.36000001
6.8740001 -3.6099999 0.38499999 0.31
6.8439999 -3.5810001 0.384 0.33000001
6.855 -3.559 0.384 0.37
6.875 -3.5420001 0.384 0.34
6.9000001 -3.5280001 0.38499999 0.40000001
6.915 -3.5079999 0.38499999 0.34
6.967 -3.507 0.38600001 0.34
7.0190001 -3.5050001 0.38699999 0.36000001
7.02 -3.4909999 0.38699999 0.27000001
7.0089998 -3.4590001 0.38600001 0.34
7.0289998 -3.441 0.38699999 0.41
7.151 -3.473 0.389 0.30000001
7.1599998 -3.4489999 0.389 0.30000001
7.1490002 -3.4170001 0.389 0.31
7.204 -3.428 0.38999999 0.36000001
7.2069998 -3.402 0.38999999 0.28999999
7.1620002 -3.3540001 0.38800001 0.28999999
7.1700001 -3.3299999 0.38800001 0.36000001
7.1900001 -3.312 0.389 0.38
7.2399998 -3.3069999 0.38999999 0.36000001
7.2410002 -3.2809999 0.389 0.31999999
7.2470002 -3.2690001 0.389 0.41
7.2820001 -3.2579999 0.38999999 0.30000001
7.4169998 -3.29 0.39300001 0.31999999
7.5560002 -3.322 0.396 0.31999999
7.6059999 -3.316 0.39700001 0.28999999
11.289 -4.8649998 0.48800001 0.36000001
11.181 -4.7779999 0.48500001 0.36000001
11.131 -4.7360001 0.484 0.23
11.152 -4.7030001 0.484 0.50999999
11.174 -4.671 0.484 0.36000001
11.31 -4.6859999 0.48699999 0.37
11.305 -4.6420002 0.48699999 0.47
11.289 -4.5949998 0.486 0.33000001
11.404 -4.6209998 0.48899999 0.36000001
11.408 -4.5799999 0.48800001 0.38999999
11.411 -4.54 0.48800001 0.46000001
11.633 -4.586 0.493 0.40000001
11.57 -4.5190001 0.491 0.18000001
11.63 -4.5 0.49200001 0.52999997
11.695 -4.4829998 0.49399999 0.27000001
11.659 -4.448 0.49200001 0.36000001
11.667 -4.4099998 0.49200001 0.47999999
11.679 -4.3720002 0.49200001 0.38999999
11.698 -4.3379998 0.49200001 0.31999999
11.768 -4.3210001 0.49399999 0.38
11.744 -4.2709999 0.493 0.44999999
11.763 -4.2360001 0.493 0.30000001
11.981 -4.2930002 0.498 0.50999999
12.04 -4.2709999 0.49900001 0.33000001
12.07 -4.2389998 0.5 0.31
12.055 -4.191 0.49900001 0.41
12.096 -4.1630001 0.5 0.31999999
12.147 -4.138 0.50099999 0.40000001
12.271 -4.158 0.50300002 0.30000001
12.256 -4.1100001 0.50300002 0.50999999
12.307 -4.0840001 0.50400001 0.28
12.373 -4.0630002 0.505 0.62
11.974 -3.891 0.495 0.28
11.933 -3.8369999 0.49399999 0.34
12.183 -3.8740001 0.49900001 0.28999999
12.399 -3.921 0.50400001 0.36000001
12.488 -3.9059999 0.50599998 0.36000001
12.531 -3.8759999 0.50700003 0.44999999
12.591 -3.8510001 0.50800002 0.19
11.927 -3.609 0.49200001 0.41
11.926 -3.5680001 0.49200001 0.50999999
12.718 -3.7590001 0.50999999 0.16
11.974 -3.52 0.493 0.56999999
12.012 -3.4909999 0.493 0.37
13.063 -3.7490001 0.51800001 0.27000001
13.138 -3.7260001 0.51899999 0.43000001
13.054 -3.658 0.51700002 0.34
12.961 -3.5880001 0.51499999 0.47
13.007 -3.5569999 0.51499999 0.37
13.049 -3.5469999 0.51599997 0.34999999
13.058 -3.5050001 0.51599997 0.30000001
13.201 -3.4990001 0.51899999 0.41
13.204 -3.4549999 0.51899999 0.44
13.248 -3.4219999 0.51999998 0.40000001
13.278 -3.385 0.51999998 0.31
13.302 -3.369 0.52100003 0.50999999
13.359 -3.339 0.52200001 0.23999999
13.381 -3.3 0.52200001 0.54000002
13.471 -3.277 0.52399999 0.28999999
13.513 -3.2420001 0.52499998 0.38999999
13.589 -3.2149999 0.52600002 0.52999997
13.467 -3.142 0.523 0.41
13.526 -3.1329999 0.52399999 0.31999999
13.793 -3.1489999 0.53100002 0.34
13.827 -3.1110001 0.53100002 0.37
13.868 -3.0739999 0.53200001 0.43000001
14.012 -3.0599999 0.53500003 0.38
13.975 -3.006 0.53399998 0.27000001
14.122 -3.0139999 0.537 0.38
14.075 -2.9579999 0.53600001 0.41
14.102 -2.9170001 0.53600001 0.44
14.097 -2.8699999 0.53600001 0.34999999
14.428 -2.8900001 0.54299998 0.44999999
14.389 -2.835 0.542 0.31999999
14.226 -2.757 0.53799999 0.31999999
14.246 -2.737 0.53899997 0.44
14.004 -2.6459999 0.53299999 0.41999999
13.767 -2.5569999 0.52700001 0.28999999
13.702 -2.5 0.52499998 0.36000001
13.905 -2.4920001 0.52999997 0.38999999
14.07 -2.4760001 0.53399998 0.34
13.883 -2.421 0.52899998 0.30000001
14.896 -2.5469999 0.55199999 0.20999999
14.446 -2.424 0.542 0.44999999
14.673 -2.415 0.54699999 0.36000001
14.876 -2.4000001 0.551 0.38999999
15.122 -2.3900001 0.55699998 0.30000001
15.128 -2.342 0.55699998 0.49000001
15.127 -2.3180001 0.55699998 0.27000001
15.18 -2.277 0.55800003 0.31
15.343 -2.2520001 0.56099999 0.37
15.19 -2.181 0.55800003 0.44999999
15.296 -2.1470001 0.56 0.20999999
15.421 -2.115 0.56300002 0.63
15.285 -2.0480001 0.56 0.20999999
14.133 -1.873 0.53299999 0.40000001
14.107 -1.825 0.53200001 0.22
15.533 -1.957 0.565 0.38999999
15.553 -1.91 0.565 0.36000001
15.557 -1.8609999 0.565 0.46000001
15.672 -1.824 0.56800002 0.28
15.641 -1.796 0.56699997 0.44
15.816 -1.765 0.57099998 0.38
15.944 -1.729 0.574 0.28999999
15.999 -1.684 0.57499999 0.43000001
16.028 -1.636 0.57499999 0.38999999
16.061001 -1.5880001 0.57599998 0.31999999
16.208 -1.551 0.579 0.31999999
16.285999 -1.533 0.58099997 0.44
16.468 -1.497 0.58499998 0.36000001
16.586 -1.455 0.58700001 0.25
16.493 -1.395 0.58499998 0.5
16.565001 -1.349 0.58700001 0.40000001
16.594999 -1.299 0.58700001 0.38999999
16.659 -1.277 0.58899999 0.30000001
16.927999 -1.244 0.59500003 0.47
15.944 -1.123 0.57200003 0.27000001
16.101 -1.0829999 0.57599998 0.34999999
16.145 -1.035 0.57700002 0.14
16.733 -1.0190001 0.58999997 0.54000002
16.414 -0.94800001 0.583 0.25999999
16.5 -0.92699999 0.58499998 0.43000001
16.941999 -0.898 0.59500003 0.25
16.783001 -0.83600003 0.59100002 0.31999999
16.809 -0.78500003 0.59200001 0.38
16.856001 -0.73400003 0.59299999 0.38999999
17.086 -0.69 0.59799999 0.31
17.367001 -0.64600003 0.60399997 0.40000001
17.455999 -0.62199998 0.60600001 0.37
17.124001 -0.55699998 0.59899998 0.34999999
17.058001 -0.50099999 0.597 0.37
17.038 -0.447 0.59600002 0.40000001
17.111 -0.39500001 0.59799999 0.16
34.494999 11.564 0.76099998 0.31
33.785999 11.446 0.75 0.11
34.23 11.716 0.75800002 0.14
34.141998 11.745 0.75700003 0.17
34.337002 11.933 0.76099998 0.19
33.751999 11.849 0.75199997 0.28
33.577 11.907 0.75 0.20999999
33.827999 12.115 0.75400001 0.14
34.063999 12.32 0.759 0.12
33.597 12.271 0.75199997 0.23
33.779999 12.398 0.755 0.18000001
33.591 12.449 0.75300002 0.23
33.099998 12.623 0.74699998 0.15000001
33.637001 12.949 0.75599998 0.23999999
33.716 13.04 0.75800002 0.19
33.827 13.205 0.75999999 0.16
33.674 13.267 0.75800002 0.44999999
33.623001 13.369 0.75800002 0.22
33.765999 13.549 0.76099998 0
34.029999 13.779 0.76599997 0
54.393002 22.205999 1.101 0
54.82 22.481001 1.109 0
63.022999 45.742001 1.392 0
60.487 44.193001 1.347 0
56.869999 41.827 1.2819999 0.07
52.243 38.681 1.197 0.090000004
51.910999 38.561001 1.191 0
47.396999 35.674999 1.11 0
0.183 8.5570002 0.338 0.31999999
0.156 8.5469999 0.338 0.19
-0.142 8.6800003 0.34 0.12
-0.28400001 8.8780003 0.34299999 0
-0.296 8.3979998 0.336 0
-3.345 20.642 0.52600002 0.18000001
-3.4990001 19.992001 0.51599997 0.17
-3.6589999 20.344999 0.52200001 0.2
-3.711 20.268 0.52100003 0.27000001
-3.7279999 20.007 0.51700002 0.37
-3.5320001 18.618999 0.49599999 0.31999999
-3.596 18.634001 0.49599999 0.23
-3.885 19.806 0.51499999 0.43000001
-3.977 20.110001 0.51999998 0.28999999
-3.8629999 18.903 0.50099999 0.30000001
-3.8469999 18.525999 0.49599999 0.28
-3.8610001 18.021 0.48800001 0.34
-3.9560001 18.186001 0.491 0.33000001
-3.97 18.114 0.49000001 0.23
-4.0180001 18.058001 0.48899999 0.38999999
-4.461 18.799 0.50199997 0.25
-5.2179999 16.280001 0.46799999 0.25
-5.2119999 16.089001 0.465 0.41999999
-5.3400002 16.396 0.47 0.40000001
-5.4260001 16.483999 0.472 0.37
-5.4619999 16.419001 0.47099999 0.25999999
-15.309 32.542 0.755 0
-15.633 32.046001 0.75 0
-21.931 19.149 0.65100002 0.17
-21.979 19.069 0.64999998 0.41
-22.042999 19.004 0.64999998 0.34
-21.906 18.766001 0.64600003 0.2
-21.49 18.292 0.63700002 0.31
-21.495001 18.18 0.63599998 0.30000001
-21.33 17.983 0.63200003 0.34999999
-21.23 17.784 0.62900001 0.31
-20.978001 17.461 0.62300003 0.28
-20.950001 17.327 0.62099999 0.37
-21.003 17.259001 0.62099999 0.34
-21.024 17.167 0.62099999 0.31999999
-21.077999 17.101 0.62099999 0.37
-21.094 17.059 0.62 0.34
-21.198999 17.034 0.62099999 0.25999999
-21.27 16.981001 0.62199998 0.46000001
-21.594 17.129 0.62699997 0.27000001
-21.533001 16.971001 0.625 0.31
-21.451 16.797001 0.62199998 0.25999999
-21.461 16.695999 0.62099999 0.31999999
-21.538 16.702 0.62199998 0.31
-21.593 16.636 0.62199998 0.38
-21.674999 16.591999 0.62300003 0.28
-21.691 16.495001 0.62199998 0.33000001
-21.790001 16.462999 0.62300003 0.31999999
-21.962999 16.486 0.625 0.40000001
-22.156 16.523001 0.62800002 0.28999999
-22.086 16.416 0.62599999 0.34
-22.173 16.372999 0.62699997 0.30000001
-22.127001 16.232 0.625 0.25
-24.731001 -8.2130003 0.60399997 0.23
-56.792999 -38.560001 1.252 0
-56.316002 -38.494999 1.245 0
-56.243999 -38.706001 1.2460001 0
-56.455002 -39.112999 1.253 0
-56.282001 -39.255001 1.252 0
-55.567001 -38.886002 1.239 0
-55.624001 -39.188 1.243 0
-55.525002 -39.379002 1.243 0
-55.414001 -39.563 1.244 0
-55.033001 -39.553001 1.239 0
-54.698002 -39.573002 1.235 0
-54.731998 -39.860001 1.238 0
-55.257999 -40.375999 1.249 0
-55.623001 -40.910999 1.258 0
-54.709 -40.505001 1.243 0
-54.484001 -40.604 1.2410001 0
-54.764 -41.081001 1.249 0
-54.669998 -41.278999 1.25 0
-54.425999 -41.362999 1.248 0
-54.386002 -41.738998 1.251 0
-40.007 -30.912001 0.977 0
-38.919998 -30.663 0.96100003 0
-38.285999 -30.360001 0.95099998 0.07
-38.191002 -30.382 0.94999999 0.090000004
-38.056 -30.471001 0.949 0.14
-37.915001 -30.554001 0.94800001 0.18000001
-37.535 -30.443001 0.94300002 0.1
-37.546001 -30.648001 0.94499999 0.15000001
-37.284 -30.629999 0.94199997 0.12
-37.250999 -30.701 0.94199997 0
-37.630001 -31.212 0.95099998 0.07
-36.980999 -30.870001 0.94099998 0.090000004
-36.747002 -30.872 0.93800002 0.14
-37.194 -31.447001 0.949 0.16
-37.027 -31.504999 0.94700003 0.1
-36.525002 -31.277 0.93900001 0.18000001
-36.573002 -31.417 0.94099998 0
-37.456001 -32.380001 0.96100003 0.090000004
-36.764999 -31.986 0.949 0.090000004
-36.689999 -32.124001 0.94999999 0
-13.749 -14.427 0.51099998 0
-13.412 -14.163 0.50400001 0
-13.179 -14.005 0.5 0
-12.919 -13.816 0.495 0.11
-12.506 -13.46 0.48699999 0.20999999
-5.8369999 -8.9180002 0.37 0.38999999
-5.77 -8.8760004 0.36899999 0.20999999
-5.7080002 -8.842 0.368 0.25
-5.638 -8.7939997 0.36700001 0.20999999
-5.5869999 -8.7749996 0.366 0.30000001
-5.5440001 -8.7379999 0.36500001 0.18000001
-5.4840002 -8.7049999 0.36399999 0.090000004
-5.4260001 -8.6730003 0.36300001 0.15000001
-5.3629999 -8.632 0.36199999 0.090000004
-5.3299999 -8.6409998 0.36199999 0
-5.2740002 -8.6099997 0.361 0
-5.2259998 -8.5620003 0.36000001 0.090000004
-5.165 -8.5220003 0.359 0.14
-5.1389999 -8.54 0.359 0.25
-5.131 -8.5880003 0.36000001 0.36000001
-6.5669999 -11.055 0.403 0.23
-6.5320001 -11.076 0.403 0.16
-6.4380002 -10.996 0.40200001 0.11
-9.5109997 -16.277 0.49399999 0.22
-9.4160004 -16.232 0.493 0.28999999
-6.2340002 -10.842 0.398 0.2
-9.2030001 -16.097 0.49000001 0.17
-9.1000004 -16.035 0.48800001 0.23
-6.007 -10.681 0.39399999 0.25
-5.9660001 -10.686 0.39399999 0.57999998
-5.9590001 -10.713 0.39399999 0.34
-5.9569998 -10.789 0.39500001 0.25
37.07 -58.674 1.2640001 0
37.226002 -58.514 1.263 0
37.431 -58.428001 1.263 0
37.051998 -57.638 1.25 0
36.858002 -56.942001 1.24 0
36.957001 -56.702999 1.237 0
37.144001 -56.599998 1.238 0
37.286999 -56.43 1.237 0
30.566999 -45.937 1.0470001 0
37.459999 -55.924999 1.232 0
37.557999 -55.881001 1.232 0
37.881001 -55.981998 1.2359999 0
23.968 -35.165001 0.85500002 0.059999999
23.881001 -34.800999 0.85000002 0.17
21.358999 -30.912001 0.77899998 0.16
21.288 -30.603001 0.77499998 0.37
20.987 -29.968 0.764 0.14
21.004 -29.892 0.76300001 0.38999999
21.087999 -29.813 0.76300001 0.16
21.367001 -29.808001 0.76599997 0.1
21.455 -29.733 0.76499999 0.1
21.392 -29.450001 0.76099998 0.14
19.735001 -26.986 0.71600002 0.2
21.525 -29.341 0.76099998 0.23
19.905001 -26.952 0.71700001 0.18000001
19.964001 -26.854 0.71700001 0.47999999
19.726999 -26.362 0.70899999 0.15000001
21.691 -28.801001 0.75599998 0.41
21.796 -28.752001 0.75700003 0.22
20.138 -26.475 0.71399999 0.19
20.070999 -26.215 0.70999998 0.38999999
19.688 -25.548 0.69800001 0.23999999
10.856 -13.977 0.477 0.23
10.772 -13.779 0.47400001 0.22
10.675 -13.565 0.47 0.38999999
10.716 -13.53 0.47 0.37
10.746 -13.524 0.47 0.25
10.731 -13.419 0.46900001 0.23
10.487 -13.028 0.46200001 0.38999999
10.785 -13.314 0.46799999 0.30000001
10.752 -13.188 0.46700001 0.28
10.729 -13.075 0.465 0.38999999
10.693 -12.989 0.46399999 0.25
10.723 -12.943 0.463 0.34
10.766 -12.912 0.463 0.36000001
10.752 -12.812 0.46200001 0.28999999
10.801 -12.789 0.46200001 0.36000001
10.933 -12.864 0.465 0.38
10.996 -12.857 0.465 0.15000001
11.089 -12.924 0.46700001 0.54000002
11.083 -12.835 0.46599999 0.22
11.203 -12.892 0.46799999 0.31999999
11.251 -12.866 0.46799999 0.41999999
11.294 -12.834 0.46799999 0.25999999
11.306 -12.765 0.46700001 0.37
11.285 -12.661 0.46599999 0.28999999
11.247 -12.579 0.46399999 0.44999999
11.395 -12.664 0.46700001 0.33000001
11.678 -12.898 0.472 0.33000001
11.808 -12.959 0.47400001 0.41
11.77 -12.836 0.47299999 0.25999999
11.855 -12.848 0.47400001 0.34999999
12.426 -13.426 0.486 0.34999999
11.811 -12.679 0.47099999 0.30000001
12.597 -13.441 0.48800001 0.27000001
12.081 -12.807 0.47600001 0.27000001
11.92 -12.557 0.47099999 0.19
12.861 -13.467 0.491 0.16
12.928 -13.241 0.48899999 0.57999998
12.551 -12.574 0.47799999 0.27000001
12.424 -12.369 0.47400001 0.28
12.429 -12.296 0.47400001 0.44
12.711 -12.497 0.479 0.36000001
12.885 -12.589 0.48199999 0.27000001
12.732 -12.361 0.47799999 0.2
12.367 -11.93 0.46900001 0.51999998
12.418 -11.942 0.47 0.19
12.659 -12.098 0.47400001 0.49000001
12.507 -11.877 0.47 0.25999999
12.564 -11.857 0.47099999 0.34
12.835 -12.037 0.47499999 0.20999999
12.773 -11.903 0.47299999 0.49000001
13.051 -12.086 0.47799999 0.41
13.714 -12.662 0.49200001 0.28999999
13.712 -12.581 0.491 0.37
13.836 -12.615 0.493 0.40000001
12.967 -11.746 0.47400001 0.41
13.155 -11.842 0.477 0
13.003 -11.631 0.47299999 0
13.488 -11.652 0.479 0.14
13.714 -11.773 0.48300001 0.30000001
13.301 -11.381 0.47400001 0.40000001
13.454 -11.439 0.47600001 0.33000001
13.447 -11.361 0.47499999 0.38999999
13.431 -11.275 0.47400001 0.34999999
13.469 -11.235 0.47499999 0.46000001
13.595 -11.268 0.47600001 0
14.32 -11.458 0.48699999 0.17
6.474 -5.0469999 0.333 0.19
6.408 -4.9619999 0.331 0.19
6.3460002 -4.882 0.329 0.2
6.3649998 -4.8649998 0.33000001 0.28
6.3740001 -4.8400002 0.329 0.23999999
6.362 -4.8150001 0.329 0.30000001
6.3660002 -4.7870002 0.329 0.25999999
6.3470001 -4.7410002 0.32800001 0.16
6.3530002 -4.7140002 0.32800001 0.41999999
6.3590002 -4.6880002 0.32800001 0.23
6.3520002 -4.652 0.32699999 0.30000001
6.349 -4.6350002 0.32699999 0.19
6.3299999 -4.5900002 0.32699999 0.36000001
6.3379998 -4.5650001 0.32699999 0.23
6.3569999 -4.5489998 0.32699999 0.27000001
6.342 -4.5079999 0.32600001 0.22
6.3660002 -4.4949999 0.32600001 0.28999999
6.3769999 -4.473 0.32600001 0.17
6.408 -4.48 0.32699999 0.23
6.3759999 -4.428 0.32600001 0.2
6.3660002 -4.3899999 0.32499999 0.28
6.368 -4.362 0.32499999 0.27000001
6.3850002 -4.3449998 0.32499999 0.27000001
6.382 -4.3130002 0.32499999 0.23999999
6.402 -4.2979999 0.32499999 0.36000001
6.3569999 -4.2529998 0.324 0.11
6.2729998 -4.1669998 0.322 0.17
6.2820001 -4.145 0.322 0.30000001
6.2839999 -4.118 0.322 0.16
6.2820001 -4.0879998 0.322 0.34999999
6.276 -4.0570002 0.32100001 0.18000001
6.2940001 -4.0539999 0.322 0.15000001
6.3080001 -4.0359998 0.322 0.17
6.3649998 -4.0440001 0.322 0.30000001
6.4380002 -4.0619998 0.324 0.25999999
6.3850002 -4.0009999 0.322 0.25
6.3769999 -3.9679999 0.322 0.2
6.3829999 -3.9430001 0.322 0.18000001
6.3909998 -3.9349999 0.322 0.30000001
6.408 -3.918 0.322 0
6.4770002 -3.9319999 0.32300001 0.050000001
6.5949998 -3.9760001 0.32499999 0.090000004
6.5120001 -3.8970001 0.32300001 0.14
6.5570002 -3.8959999 0.324 0.20999999
6.533 -3.8540001 0.32300001 0.23999999
6.5279999 -3.8380001 0.32300001 0.18000001
6.5250001 -3.8080001 0.32300001 0.37
6.526 -3.7820001 0.322 0.22
6.5489998 -3.767 0.32300001 0.18000001
6.5780001 -3.757 0.32300001 0.28
6.572 -3.7260001 0.32300001 0.2
6.6059999 -3.7309999 0.32300001 0.20999999
6.638 -3.7219999 0.32300001 0.20999999
6.6570001 -3.7049999 0.324 0.28999999
6.691 -3.697 0.324 0.27000001
6.7080002 -3.6789999 0.324 0.25
6.7529998 -3.6760001 0.32499999 0.2
6.7750001 -3.661 0.32499999 0.23999999
6.7950001 -3.658 0.32499999 0.30000001
6.8099999 -3.638 0.32499999 0.36000001
6.8249998 -3.619 0.32499999 0.27000001
6.8449998 -3.602 0.32499999 0.25
6.8439999 -3.5739999 0.32499999 0.23
6.8429999 -3.546 0.32499999 0.2
6.862 -3.543 0.32499999 0.49000001
6.8860002 -3.527 0.32499999 0.25
6.9169998 -3.516 0.32600001 0.27000001
6.9580002 -3.5090001 0.32600001 0.27000001
6.9689999 -3.4879999 0.32600001 0.25999999
6.9829998 -3.467 0.32600001 0.2
6.994 -3.4460001 0.32600001 0.17
7.0209999 -3.4449999 0.32699999 0.14
7.1339998 -3.473 0.32800001 0.18000001
7.1430001 -3.45 0.32800001 0.16
7.1739998 -3.437 0.329 0.43000001
7.2389998 -3.441 0.33000001 0.15000001
7.2859998 -3.4349999 0.33000001 0.15000001
7.1900001 -3.362 0.32800001 0.16
7.1750002 -3.3410001 0.32800001 0.23
7.1750002 -3.313 0.32800001 0.28999999
7.191 -3.293 0.32800001 0.28
7.223 -3.2809999 0.32800001 0.28999999
7.2620001 -3.2709999 0.329 0.23
7.2940001 -3.2579999 0.329 0.16
7.3319998 -3.2620001 0.33000001 0.46000001
7.3790002 -3.2550001 0.33000001 0.20999999
7.5009999 -3.2809999 0.33199999 0.13
11.066 -4.7709999 0.391 0.28
11.312 -4.836 0.39500001 0.31
11.209 -4.75 0.39300001 0.46000001
11.106 -4.6849999 0.391 0.27000001
11.206 -4.6859999 0.39199999 0.34
11.394 -4.723 0.39500001 0.40000001
11.3 -4.6420002 0.39399999 0.34
11.346 -4.6199999 0.39399999 0.41
11.249 -4.539 0.39199999 0.31
11.061 -4.4219999 0.389 0.15000001
11.528 -4.5890002 0.396 0.5
11.026 -4.348 0.38800001 0.2
11.68 -4.5650001 0.398 0.37
11.543 -4.4699998 0.396 0.28999999
11.512 -4.4159999 0.39500001 0.31
11.657 -4.4299998 0.39700001 0.43000001
11.64 -4.402 0.39700001 0.31
11.61 -4.349 0.396 0.31999999
11.628 -4.3140001 0.396 0.31999999
11.619 -4.2690001 0.396 0.41
11.715 -4.263 0.39700001 0.40000001
11.747 -4.2329998 0.398 0.33000001
11.963 -4.2690001 0.40099999 0.27000001
12.155 -4.316 0.40400001 0.44
12.089 -4.25 0.403 0.31
12.017 -4.1820002 0.40099999 0.31
12.027 -4.1430001 0.40099999 0.38
12.094 -4.1240001 0.40200001 0.30000001
12.145 -4.099 0.403 0.27000001
12.215 -4.0799999 0.40400001 0.52999997
12.147 -4.0359998 0.40200001 0.34
12.097 -3.977 0.40099999 0.31999999
11.946 -3.8859999 0.39899999 0.27000001
11.903 -3.8299999 0.398 0.43000001
11.923 -3.7950001 0.398 0.28
11.935 -3.7579999 0.398 0.41
12.122 -3.7750001 0.40099999 0.28999999
12.061 -3.7360001 0.40000001 0.2
11.826 -3.622 0.396 0.2
11.74 -3.5550001 0.39399999 0.47999999
12.653 -3.79 0.40900001 0.37
12.722 -3.767 0.41 0.38
12.089 -3.5369999 0.39899999 0.28999999
12.732 -3.7049999 0.40900001 0.28
12.828 -3.6889999 0.41100001 0.25999999
12.88 -3.661 0.41100001 0.37
12.903 -3.6229999 0.412 0.31999999
12.899 -3.579 0.41100001 0.34
12.906 -3.5369999 0.41100001 0.43000001
12.883 -3.487 0.41100001 0.37
12.973 -3.49 0.412 0.38999999
13.084 -3.4760001 0.414 0.33000001
13.041 -3.4200001 0.41299999 0.33000001
13.09 -3.3900001 0.41299999 0.36000001
13.192 -3.372 0.41499999 0.28999999
13.363 -3.3710001 0.417 0.37
13.34 -3.3429999 0.417 0.46000001
13.391 -3.3110001 0.41800001 0.31999999
13.421 -3.2739999 0.41800001 0.34
13.6 -3.273 0.41999999 0.41
13.633 -3.2360001 0.421 0.23
13.593 -3.181 0.41999999 0.46000001
13.572 -3.131 0.41999999 0.41999999
13.643 -3.125 0.421 0.31
13.729 -3.099 0.42199999 0.43000001
13.789 -3.0669999 0.42300001 0.38
13.791 -3.0220001 0.42199999 0.27000001
13.753 -2.9690001 0.42199999 0.49000001
13.942 -2.964 0.42500001 0.28999999
13.975 -2.948 0.42500001 0.38
14.015 -2.911 0.42500001 0.33000001
14.071 -2.8759999 0.426 0.43000001
14.059 -2.8280001 0.426 0.34
