# .PCD v0.7 - Point Cloud Data file format
VERSION 0.7
FIELDS x y z intensity
SIZE 4 4 4 4
TYPE F F F F
COUNT 1 1 1 1
WIDTH 450
HEIGHT 1
VIEWPOINT 0 0 0 1 0 0 0
POINTS 450
DATA ascii
-2.8199999 18.718 0.72899997 0.17
-2.868 18.643999 0.727 0.52999997
-2.826 18.327 0.63099998 0.34999999
50.617001 37.848 1.169 0
-2.8729999 18.636999 0.495 0.50999999
-2.902 18.635 0.495 0.46000001
-0.241 8.434 0.29300001 0.58999997
-0.26699999 8.4370003 0.29300001 0.38999999
-2.8139999 18.666 0.398 0.50999999
-2.8729999 18.659 0.398 0.34999999
-2.8570001 18.181999 0.39300001 0.36000001
-3.1270001 19.488001 0.40700001 0.31
-5.138 16.320999 0.38 0.34
-0.13500001 8.5760002 0.234 0.25999999
-2.7869999 18.537001 0.266 0.16
-2.8150001 18.531 0.266 0.56999999
-2.993 18.521 0.266 0.57999998
-4.9580002 16.667999 0.26199999 0.19
-4.9499998 16.547001 0.26100001 0.51999998
-4.9720001 16.431 0.26100001 0.30000001
-5.033 16.444 0.26100001 0.55000001
-5.1129999 16.34 0.26100001 0.41999999
-5.1399999 16.246 0.26100001 0.23
-5.1529999 16.023001 0.25999999 0.55000001
0.204 8.6459999 0.193 0.23
0.177 8.6190004 0.193 0.41999999
0.15000001 8.6289997 0.193 0.34
0.122 8.6059999 0.193 0.47
0.094999999 8.6120005 0.193 0.38
0.082000002 8.5959997 0.193 0.5
-0.026000001 8.5799999 0.193 0.57999998
-0.052999999 8.5900002 0.193 0.33000001
-0.079999998 8.5760002 0.193 0.46000001
-0.093999997 8.5959997 0.193 0.36000001
-0.121 8.5780001 0.193 0.47999999
-0.147 8.5690002 0.193 0.41
-0.17399999 8.5690002 0.193 0.43000001
-0.20100001 8.5679998 0.193 0.41999999
-0.228 8.573 0.193 0.38999999
-0.255 8.559 0.193 0.46000001
-0.26899999 8.5719995 0.193 0.40000001
-0.29499999 8.5430002 0.193 0.60000002
-0.322 8.5679998 0.193 0.58999997
-2.5510001 16.804001 0.18000001 0.22
-2.8699999 18.688999 0.177 0.54000002
-2.9389999 18.747 0.177 0.30000001
-2.9990001 18.743999 0.177 0.58999997
-3.0669999 18.788 0.177 0.25
-4.8790002 16.049 0.18000001 0.31999999
-4.9330001 16.045 0.18000001 0.36000001
-4.9809999 16.02 0.18000001 0.47
-5.0339999 16.014 0.18000001 0.36000001
-5.0879998 16.009001 0.18000001 0.5
-5.1399999 15.999 0.18000001 0.37
-5.171 16.01 0.18000001 0.44999999
-5.2179999 15.982 0.18000001 0.47
-5.2680001 15.966 0.18000001 0.46000001
-5.3280001 15.978 0.18000001 0.31999999
-5.3790002 15.965 0.18000001 0.49000001
-5.4289999 15.948 0.18000001 0.36000001
-5.4559999 15.943 0.18000001 0.46000001
-5.5110002 15.941 0.18000001 0.37
-5.5580001 15.914 0.18000001 0.63
0.164 8.5459995 0.139 0.25999999
0.13699999 8.559 0.139 0.22
-0.067000002 8.9919996 0.13500001 0.15000001
-0.094999999 8.9750004 0.13500001 0.38999999
-0.123 9.0129995 0.13500001 0.16
-0.16 8.6750002 0.138 0.20999999
-2.5079999 16.711 0.072999999 0.36000001
-2.8570001 18.652 0.057 0.44
-2.9130001 18.631001 0.057 0.47
-4.8990002 16.028 0.074000001 0.67000002
-5.158 16.507 0.07 0.64999998
-5.2329998 16.118 0.071999997 0.25
-5.493 15.891 0.072999999 0.30000001
-5.5440001 15.88 0.072999999 0.54000002
0.162 8.5620003 0.086000003 0.56
0.13500001 8.5819998 0.085000001 0.31999999
-0.071999997 9.0109997 0.079000004 0.27000001
-0.1 8.9829998 0.079999998 0.69999999
-0.12899999 9.0089998 0.079000004 0.30000001
-0.164 8.698 0.083999999 0.54000002
-2.4489999 16.658001 -0.029999999 0.63
-2.865 18.648001 -0.059 0.62
-2.925 18.65 -0.059 0.44999999
-3.0480001 19.232 -0.067000002 0.36000001
-3.1170001 19.275999 -0.068000004 0.44
-4.954 16.108 -0.030999999 0.73000002
-5.0209999 16.233999 -0.033 0.17
-5.1609998 16.502001 -0.037 0.67000002
-5.2610002 16.108999 -0.032000002 0.60000002
-5.29 16.113001 -0.032000002 0.58999997
-5.4089999 15.967 -0.030999999 0.1
-5.4559999 15.941 -0.030999999 0.15000001
-5.4970002 15.897 -0.029999999 0.28
-5.54 15.859 -0.029999999 0.14
0.16500001 8.6120005 0.024 0.30000001
0.15099999 8.599 0.025 0.25
-0.081 9.0220003 0.016000001 0.36000001
-0.109 9.033 0.016000001 0.19
-0.161 8.7360001 0.022 0.18000001
-2.474 16.662001 -0.148 0.46000001
-2.8269999 18.657 -0.191 0.22
-2.8889999 18.67 -0.191 0.58999997
-2.954 18.700001 -0.192 0.30000001
-3.0190001 18.73 -0.193 0.31
-3.076 18.896999 -0.19599999 0.34999999
-3.1110001 18.739 -0.193 0.28999999
-4.8940001 16.011 -0.146 0
-4.9429998 15.992 -0.146 0
-5.0120001 16.125 -0.149 0
-5.2470002 16.164 -0.15099999 0.61000001
-5.5320001 15.925 -0.148 0.61000001
-5.5900002 15.93 -0.149 0.28999999
0.163 8.6400003 -0.021 0.51999998
0.15000001 8.6479998 -0.021 0.30000001
-0.086000003 9.059 -0.030999999 0.61000001
-0.115 9.0749998 -0.032000002 0.25
-0.16500001 8.7720003 -0.024 0.51999998
-2.4219999 16.66 -0.234 0.51999998
-2.494 16.783001 -0.23800001 0.27000001
-2.8399999 18.688 -0.28799999 0.63
-2.904 18.714001 -0.289 0.33000001
-3.6730001 23.146999 -0.40599999 0.44999999
-3.743 23.122 -0.40599999 0.25
-3.773 23.073999 -0.405 0.56999999
-3.1570001 18.965 -0.29699999 0.27000001
-3.24 19.091 -0.30000001 0.30000001
-4.9299998 16.125999 -0.235 0.66000003
-5.1479998 16.556999 -0.24699999 0.56999999
-5.2059999 16.202999 -0.23899999 0.31999999
-5.2540002 16.177 -0.23899999 0.23
-5.4970002 15.982 -0.236 0.17
-5.552 15.978 -0.236 0.56999999
0.177 8.5439997 -0.068999998 0
0.15000001 8.5509996 -0.068999998 0
0.123 8.5530005 -0.068999998 0
0.11 8.5830002 -0.07 0
0.082999997 8.6000004 -0.071000002 0
-0.025 8.6459999 -0.071999997 0.050000001
-0.093000002 8.6960001 -0.074000001 0.47999999
-0.121 8.7229996 -0.075000003 0.30000001
-0.148 8.7189999 -0.075000003 0.47999999
-0.176 8.7220001 -0.075000003 0.5
-2.4519999 16.683001 -0.33500001 0.55000001
-2.8039999 18.691999 -0.40099999 0.31999999
-2.8729999 18.75 -0.403 0.69
-3.612 23.128 -0.54500002 0.28999999
-3.684 23.113001 -0.54500002 0.28999999
-3.0650001 18.820999 -0.40599999 0.52999997
-3.2880001 19.24 -0.41999999 0.19
-3.345 19.208 -0.41999999 0.31
-4.8629999 15.995 -0.331 0.69
-4.927 16.025999 -0.33199999 0.17
-5.1659999 16.618999 -0.35299999 0.69
-5.1700001 16.540001 -0.34999999 0.31999999
-5.2140002 16.143 -0.33899999 0.63999999
-5.5019999 15.916 -0.33500001 0.67000002
-5.552 15.898 -0.33500001 0.44
0.17399999 8.6450005 -0.12899999 0.44
0.147 8.6400003 -0.12899999 0.46000001
-0.075000003 9.0649996 -0.145 0.41
-0.104 9.0600004 -0.145 0.47
-0.155 8.7860003 -0.13500001 0.22
-0.182 8.7410002 -0.133 0.66000003
-0.214 8.934 -0.141 0
-0.222 8.7060003 -0.132 0
-0.249 8.6920004 -0.131 0
-0.27500001 8.6610003 -0.13 0
-0.30199999 8.6420002 -0.12899999 0
-0.32800001 8.6289997 -0.12899999 0
-2.424 16.631001 -0.44400001 0.62
-2.4679999 16.75 -0.449 0.27000001
-2.8210001 18.712 -0.52600002 0.41
-2.8710001 18.65 -0.523 0.60000002
-2.948 18.753 -0.528 0.34999999
-3.1619999 19.702999 -0.565 0.47999999
-3.2190001 19.665001 -0.56400001 0.36000001
-3.28 19.653 -0.56400001 0.38999999
-3.2839999 18.774 -0.53100002 0.28
-4.9200001 16.159 -0.447 0.74000001
-4.9380002 16.040001 -0.44299999 0.17
-5.1620002 16.58 -0.465 0.58999997
-5.2080002 16.542 -0.465 0.54000002
-5.224 16.150999 -0.44999999 0.67000002
-5.5190001 15.945 -0.44600001 0.38999999
-5.559 15.899 -0.44499999 0.63999999
0.19599999 8.585 -0.178 0.17
0.169 8.5679998 -0.178 0.61000001
-0.15700001 8.7220001 -0.184 0.58999997
-0.185 8.7469997 -0.186 0.17
-2.5039999 16.740999 -0.54900002 0.31999999
-2.822 18.684 -0.63700002 0.58999997
-2.8900001 18.738001 -0.63999999 0.62
-3.6340001 23.118999 -0.83700001 0.23
-3.704 23.09 -0.83700001 0.37
-3.0409999 18.552 -0.63300002 0.38999999
-3.2720001 19.587 -0.68000001 0.31999999
-3.306 19.226999 -0.66399997 0.28999999
-3.348 19.112 -0.65899998 0.20999999
-4.836 16.030001 -0.54100001 0.17
-4.9229999 16.135 -0.54699999 0.72000003
-5.1560001 16.527 -0.56599998 0.70999998
-5.2340002 16.148001 -0.551 0.38999999
-5.5219998 15.923 -0.546 0.62
-5.5700002 15.898 -0.546 0.27000001
0.19599999 8.5880003 -0.228 0.2
0.169 8.5710001 -0.227 0.41
-0.093000002 9.0129995 -0.249 0.34999999
-0.107 9.0109997 -0.249 0.18000001
-0.15800001 8.7390003 -0.236 0.38
-2.4949999 16.695999 -0.64399999 0.27000001
-2.8499999 18.655001 -0.74400002 0.41
-2.891 18.725 -0.74800003 0.62
-2.931 18.6 -0.74199998 0.16
-3.326 19.5 -0.79000002 0.25999999
-3.227 18.743 -0.75199997 0.41
-4.8860002 16.025999 -0.63800001 0.68000001
-5.1799998 16.612 -0.67000002 0.66000003
-5.1789999 15.99 -0.64099997 0.55000001
-5.5089998 15.892 -0.64099997 0.34999999
-5.5560002 15.869 -0.64099997 0.56999999
0.19599999 8.5780001 -0.28200001 0.14
0.182 8.552 -0.28099999 0.51999998
0.156 8.5760002 -0.28200001 0.25
-0.075999998 9.0109997 -0.30700001 0.30000001
-0.104 9.0030003 -0.30599999 0.50999999
-0.17 8.7360001 -0.29100001 0.25
-2.8139999 18.638 -0.86299998 0.44
-2.869 18.610001 -0.86199999 0.36000001
-2.9059999 18.658001 -0.86500001 0.52999997
-3.6600001 23.059999 -1.117 0.2
-3.0420001 18.752001 -0.87099999 0.18000001
-3.0910001 18.681 -0.86799997 0.52999997
-4.855 16.004999 -0.74299997 0.62
-5.1799998 16.517 -0.77600002 0.58999997
-5.2249999 16.125 -0.755 0.47
-5.4970002 15.772 -0.741 0.55000001
-13.716 -15.523 -0.96799999 0.56
0.183 8.6300001 -0.331 0.44999999
0.156 8.6429996 -0.33199999 0.33000001
-0.093999997 9.0710001 -0.359 0.54000002
-0.122 9.0860004 -0.36000001 0.36000001
-0.17399999 8.8280001 -0.34400001 0.18000001
-2.467 16.695 -0.84100002 0.57999998
-2.51 16.799999 -0.84799999 0.16
-2.8570001 18.697001 -0.96700001 0.44999999
-2.911 18.660999 -0.96600002 0.56
-2.9649999 18.622 -0.96399999 0.31
-3.7509999 23.051001 -1.242 0.18000001
-3.8180001 23.011 -1.24 0.51999998
-4.8639998 16.042999 -0.83399999 0.61000001
-5.1960001 16.572001 -0.87199998 0.63
-5.2179999 16.194 -0.85000002 0.40000001
-5.2659998 16.17 -0.84899998 0.38
-5.546 15.92 -0.83999997 0.67000002
-13.797 -15.481 -1.08 0.28999999
0.19599999 8.5799999 -0.38800001 0.23999999
0.17 8.5869999 -0.389 0.49000001
-0.090000004 9.0410004 -0.41999999 0.36000001
-0.118 9.0369997 -0.41999999 0.38
-0.156 8.7390003 -0.39899999 0.23
-0.184 8.7440004 -0.40000001 0.14
-2.493 16.674 -0.958 0.28999999
-2.816 18.657 -1.096 0.28
-2.875 18.65 -1.096 0.56999999
-3.6270001 23.084 -1.406 0.25999999
-3.6960001 23.051001 -1.404 0.54000002
-3.7639999 23.011999 -1.402 0.28999999
-3.1819999 19.052999 -1.127 0.28
-4.8400002 16.045 -0.95099998 0.31
-4.8779998 15.992 -0.94800001 0.54000002
-5.177 16.599001 -0.99400002 0.63999999
-5.2290001 16.139 -0.96499997 0.64999998
-5.5209999 15.921 -0.95700002 0.17
-5.5689998 15.9 -0.95700002 0.54000002
-12.489 -13.961 -1.087 0.23999999
-12.299 -13.837 -1.072 0.43000001
-12.286 -13.865 -1.072 0.43000001
0.198 8.665 -0.43700001 0.37
0.171 8.6520004 -0.43599999 0.40000001
-0.093000002 9.1160002 -0.47 0.31
-0.108 9.1239996 -0.47099999 0.41
-0.15899999 8.8140001 -0.44800001 0.44999999
-0.18700001 8.8310003 -0.449 0.18000001
-2.497 16.726 -1.045 0.36000001
-2.8599999 18.731001 -1.1950001 0.27000001
-2.8889999 18.726 -1.1950001 0.68000001
-3.6559999 23.169001 -1.527 0.41
-3.053 18.989 -1.216 0.23999999
-3.79 23.076 -1.522 0.25999999
-3.858 23.039 -1.52 0.15000001
-3.9879999 22.931999 -1.5140001 0.31
-4.849 16.091 -1.0369999 0.36000001
-4.8940001 16.058001 -1.036 0.70999998
-5.1810002 16.621 -1.081 0.64999998
-5.2340002 16.606001 -1.082 0.31
-5.2610002 16.247999 -1.057 0.63999999
-5.5840001 15.954 -1.044 0.63
-12.391 -13.854 -1.168 0.27000001
0.199 8.5830002 -0.48699999 0.20999999
0.186 8.6029997 -0.48899999 0.18000001
-0.101 9.0410004 -0.52399999 0.23999999
-0.13 9.0550003 -0.52499998 0.18000001
-0.167 8.743 -0.5 0.14
-2.5209999 16.719 -1.155 0.28
-2.8640001 18.621 -1.3099999 0.23
-2.9300001 18.657 -1.314 0.60000002
-2.9749999 18.757 -1.323 0.34
-3.723 23.042999 -1.6720001 0.23999999
-3.3280001 20.17 -1.439 0.19
-3.3340001 19.816 -1.411 0.47999999
-3.457 19.788 -1.411 0.27000001
-4.8569999 16.031 -1.143 0.69999999
-5.2160001 16.653 -1.199 0.64999998
-5.2509999 16.139 -1.161 0.41999999
-5.559 15.888 -1.149 0.47999999
-5.586 15.887 -1.15 0.41
0.20200001 8.6219997 -0.54000002 0.15000001
0.18799999 8.5939999 -0.53799999 0.55000001
0.161 8.6070004 -0.53899997 0.16
-0.102 9.0600004 -0.57800001 0.31999999
-0.131 9.059 -0.57800001 0.54000002
-0.167 8.7559996 -0.55199999 0.34
-2.513 16.709999 -1.252 0.31999999
-2.872 18.674999 -1.423 0.27000001
-2.924 18.624001 -1.42 0.64999998
-2.9860001 18.82 -1.437 0.25999999
-3.0420001 18.797001 -1.436 0.38999999
-3.279 19.853001 -1.529 0.49000001
-3.3369999 19.816999 -1.527 0.2
-3.401 19.82 -1.528 0.58999997
-3.457 19.771999 -1.524 0.31
-4.8930001 16.082001 -1.244 0.67000002
-5.1799998 16.552 -1.29 0.67000002
-5.2670002 16.121 -1.257 0.63999999
-5.573 15.867 -1.245 0.64999998
0.18799999 8.5129995 -0.58200002 0.12
-0.11 8.974 -0.62400001 0.15000001
-0.162 8.677 -0.597 0
-0.19 8.7200003 -0.60100001 0.1
-2.826 18.624001 -1.53 0.14
-2.882 18.6 -1.529 0.44999999
-2.951 18.660999 -1.535 0.46000001
-3.0309999 18.784 -1.548 0.33000001
-3.1289999 19.202 -1.587 0.16
-3.286 19.783001 -1.642 0.31999999
-3.3510001 19.790001 -1.6440001 0.36000001
-3.4200001 19.816999 -1.647 0.49000001
-4.8280001 15.964 -1.332 0.25999999
-4.881 15.957 -1.3329999 0.46000001
-5.1430001 16.540001 -1.391 0.20999999
-5.2010002 16.541 -1.393 0.44999999
-5.2329998 16.108999 -1.3559999 0.56
-5.5669999 15.857 -1.344 0.56999999
0.20999999 8.6009998 -0.64499998 0.27000001
0.182 8.5740004 -0.64200002 0.61000001
-0.093000002 9.0609999 -0.69 0.46000001
-0.121 9.0109997 -0.685 0.63999999
-0.171 8.717 -0.65600002 0.58999997
-2.4990001 16.728001 -1.461 0.16
-2.8429999 18.606001 -1.649 0.5
-2.8989999 18.584 -1.647 0.5
-2.9530001 18.551001 -1.645 0.38999999
-3.0120001 18.545 -1.645 0.36000001
-3.0480001 18.582001 -1.649 0.38
-3.3 19.347 -1.728 0.34
-4.8379998 15.959 -1.438 0.64999998
-5.585 18.004 -1.651 0.16
-5.1609998 16.551001 -1.503 0.52999997
-5.677 17.997999 -1.653 0.38999999
-5.7470002 18.021999 -1.658 0.30000001
-5.1989999 16.138 -1.465 0.49000001
-5.244 16.103001 -1.4630001 0.30000001
-0.075000003 9.0480003 -0.74400002 0.31
-0.104 9.0769997 -0.74699998 0.63999999
-0.156 8.7340002 -0.71200001 0.44999999
-0.184 8.7440004 -0.713 0.41
-2.464 16.662001 -1.558 0.36000001
-2.809 18.610001 -1.7640001 0.37
-2.8710001 18.625 -1.767 0.38
-2.9330001 18.641001 -1.7690001 0.51999998
-3.0009999 18.688999 -1.775 0.28999999
-3.0669999 18.723 -1.78 0.50999999
-3.0780001 18.610001 -1.7690001 0.34
-4.823 15.993 -1.543 0.52999997
-5.164 16.559999 -1.61 0.56999999
-5.2199998 16.649 -1.6210001 0.27000001
-5.2210002 16.115999 -1.568 0.61000001
-5.5469999 16.764999 -1.643 0.55000001
-0.075999998 9.0819998 -0.80699998 0.15000001
-0.104 9.0179996 -0.80000001 0.50999999
-0.133 9.0869999 -0.80800003 0.25999999
-0.15700001 8.8339996 -0.77999997 0.19
-0.183 8.7880001 -0.77499998 0.20999999
-2.46 16.691999 -1.671 0.41
-2.813 18.655001 -1.893 0.30000001
-2.8710001 18.643999 -1.892 0.38999999
-2.9419999 18.712 -1.901 0.2
-3.0050001 18.728001 -1.904 0.47999999
-3.0539999 18.657 -1.897 0.38999999
-3.1170001 18.677 -1.9 0.25
-5.171 15.987 -1.664 0.34999999
-5.2360001 16.014 -1.669 0.41
-5.2810001 15.982 -1.6670001 0.38999999
-0.097999997 9.0439997 -0.85900003 0.41999999
-0.112 9.0500002 -0.86000001 0.36000001
-0.164 8.743 -0.824 0.54000002
-0.089000002 9.0869999 -0.91600001 0.40000001
-0.118 9.0799999 -0.91600001 0.43000001
-0.168 8.7659998 -0.87699997 0.56
-0.078000002 9.0629997 -0.95999998 0.23999999
-0.106 9.033 -0.95599997 0.61000001
-0.134 9.0430002 -0.958 0.30000001
-0.145 8.7489996 -0.92000002 0.27000001
-0.17200001 8.7250004 -0.917 0.51999998
0.23 8.6709995 -0.97100002 0.25999999
0.20200001 8.6379995 -0.96600002 0.63999999
-0.075000003 9.1639996 -1.0369999 0.18000001
-0.103 9.1359997 -1.033 0.47999999
-0.132 9.1210003 -1.031 0.56999999
-0.182 8.8030005 -0.98900002 0.58999997
0.23 8.5959997 -1.0190001 0.17
0.21600001 8.5830002 -1.017 0.31999999
-0.097999997 9.0860004 -1.0880001 0.33000001
-0.127 9.0719995 -1.086 0.25
-0.164 8.7259998 -1.0369999 0.34
0.236 8.6289997 -1.063 0.2
0.222 8.6090002 -1.0599999 0.51999998
0.19499999 8.6120005 -1.0599999 0.38999999
-0.096000001 9.118 -1.1339999 0.34999999
-0.11 9.092 -1.13 0.58999997
-0.139 9.092 -1.13 0.18000001
-0.16 8.7690001 -1.0829999 0.44
-0.18799999 8.7600002 -1.082 0.50999999
0.226 8.6199999 -1.123 0.50999999
0.199 8.6120005 -1.122 0.47
-0.103 9.1040001 -1.197 0.47
-0.132 9.1020002 -1.197 0.5
-0.156 8.7700005 -1.146 0.23
-0.169 8.7480001 -1.143 0.67000002
0.21799999 8.5959997 -1.24 0.30000001
-0.114 9.092 -1.319 0.27000001
-0.142 9.066 -1.3150001 0.60000002
-0.15700001 9.0719995 -1.3150001 0.16
-0.178 8.7480001 -1.2640001 0.37
-0.204 8.7130003 -1.2589999 0.56999999
-0.124 9.0719995 -1.405 0.56
-0.15099999 8.9729996 -1.388 0.36000001
