# .PCD v0.7 - Point Cloud Data file format
VERSION 0.7
FIELDS x y z intensity
SIZE 4 4 4 4
TYPE F F F F
COUNT 1 1 1 1
WIDTH 1433
HEIGHT 1
VIEWPOINT 0 0 0 1 0 0 0
POINTS 1433
DATA ascii
-3.96 17.662001 -1.689 0.38
-4.0209999 17.677 -1.692 0.40000001
-4.053 17.690001 -1.694 0.38999999
-4.0910001 17.6 -1.686 0.40000001
-4.1440001 17.579 -1.6849999 0.40000001
-4.1830001 17.496 -1.677 0.40000001
-4.2189999 17.406 -1.669 0.37
-4.2540002 17.311001 -1.66 0.38999999
-4.3049998 17.284 -1.659 0.40000001
-4.3189998 17.223 -1.653 0.41
-4.3740001 17.216 -1.654 0.34
-4.421 17.171 -1.65 0.43000001
-4.4640002 17.115999 -1.646 0.34999999
-4.5149999 17.093 -1.645 0.43000001
-4.5710001 17.086 -1.646 0.41
-4.6160002 17.039 -1.642 0.44999999
-4.6370001 17.013 -1.64 0.30000001
-4.6900001 16.993999 -1.64 0.47999999
-4.7550001 17.021 -1.6440001 0.25999999
-4.802 16.983 -1.642 0.51999998
-4.862 16.990999 -1.6440001 0.27000001
-4.8959999 16.910999 -1.637 0.51999998
-4.9450002 16.978001 -1.645 0.27000001
-4.993 16.947001 -1.6440001 0.54000002
-5.0500002 16.941999 -1.645 0.25999999
-4.8870001 16.021 -1.548 0.54000002
-5.0229998 16.287001 -1.579 0.17
-5.329 16.811001 -1.64 0.52999997
-5.395 16.837999 -1.645 0.25
-5.4879999 16.761999 -1.641 0.28
-5.5970001 16.74 -1.642 0.27000001
-5.6269999 16.743 -1.643 0.52999997
-5.7069998 16.804001 -1.652 0.27000001
-5.7389998 16.728001 -1.646 0.54000002
-5.802 16.74 -1.649 0.25
-5.5599999 15.874 -1.5549999 0.63999999
-5.9130001 16.719999 -1.651 0.41
-5.9650002 16.697001 -1.65 0.37
-5.993 16.695999 -1.651 0.44
-6.0609999 16.718 -1.656 0.38999999
-6.119 16.714001 -1.6569999 0.34999999
-6.1750002 16.704 -1.659 0.38999999
-6.2140002 16.649 -1.655 0.56
-6.2639999 16.624001 -1.654 0.25999999
-3.122 18.531 -1.8839999 0.58999997
-3.3329999 19.399 -1.983 0.20999999
-3.0420001 17.395 -1.7589999 0.31999999
-3.1029999 17.419001 -1.763 0.34
-3.1670001 17.459999 -1.768 0.41
-3.1789999 17.219 -1.742 0.34
-3.2219999 17.153 -1.7359999 0.38999999
-3.257 17.191999 -1.7410001 0.34
-3.2750001 16.997 -1.72 0.36000001
-3.322 16.952999 -1.716 0.38999999
-3.3640001 16.884001 -1.71 0.40000001
-3.4170001 16.874001 -1.71 0.38
-3.464 16.834 -1.706 0.40000001
-3.5090001 16.788 -1.702 0.33000001
-3.533 16.771999 -1.701 0.40000001
-3.5869999 16.767 -1.702 0.38999999
-3.631 16.715 -1.697 0.40000001
-3.684 16.707001 -1.698 0.38
-3.7320001 16.672001 -1.6950001 0.34999999
-3.773 16.612 -1.6900001 0.37
-3.8239999 16.594 -1.689 0.41
-3.846 16.570999 -1.687 0.33000001
-3.8959999 16.551001 -1.686 0.40000001
-3.941 16.507999 -1.683 0.38999999
-3.9749999 16.422001 -1.674 0.36000001
-4.0219998 16.392 -1.6720001 0.33000001
-4.073 16.379 -1.6720001 0.41
-4.0910001 16.34 -1.668 0.38999999
-4.1399999 16.316999 -1.6670001 0.31999999
-4.184 16.277 -1.664 0.41
-4.2350001 16.266001 -1.664 0.40000001
-4.2979999 16.295 -1.669 0.36000001
-4.3499999 16.285 -1.67 0.41999999
-4.3909998 16.233 -1.665 0.31999999
-4.4109998 16.207001 -1.663 0.41
-4.4660001 16.207001 -1.665 0.34
-4.52 16.205999 -1.666 0.43000001
-4.5630002 16.165001 -1.663 0.34
-4.6100001 16.135 -1.661 0.41
-4.6729999 16.164 -1.666 0.38999999
-4.7249999 16.153 -1.6670001 0.38
-4.7509999 16.146 -1.6670001 0.38999999
-4.79 16.093 -1.6619999 0.27000001
-4.823 16.018999 -1.656 0.43000001
-4.881 16.030001 -1.659 0.37
-4.928 16.003 -1.6569999 0.37
-4.9910002 16.030001 -1.6619999 0.37
-5.0440001 16.023001 -1.663 0.41
-5.072 16.023001 -1.664 0.44999999
-5.1300001 16.030001 -1.6670001 0.38999999
-5.3400002 15.992 -1.67 0.36000001
-5.381 15.949 -1.6670001 0.38999999
-5.4299998 16.007999 -1.675 0.33000001
-5.4559999 15.922 -1.6670001 0.31
-5.5139999 15.927 -1.67 0.38
-5.5289998 15.81 -1.658 0.43000001
-5.5819998 15.804 -1.659 0.38
-5.6599998 15.863 -1.668 0.44
-5.698 15.891 -1.673 0.34999999
-5.7049999 15.756 -1.659 0
-2.24 16.278 -1.724 0.27000001
-2.296 16.306999 -1.728 0.47999999
-2.3510001 16.323 -1.7309999 0.27000001
-2.405 16.334999 -1.733 0.38
-2.461 16.363001 -1.737 0.44
-2.5 16.447001 -1.748 0.34999999
-2.5550001 16.461 -1.75 0.40000001
-2.598 16.393999 -1.743 0.36000001
-2.635 16.299999 -1.733 0.34999999
-2.6689999 16.183001 -1.72 0.41999999
-2.7249999 16.204 -1.724 0.43000001
-2.7620001 16.117001 -1.714 0.30000001
-2.7809999 16.073999 -1.71 0.47
-2.839 16.106001 -1.715 0.36000001
-2.8889999 16.099001 -1.715 0.37
-2.937 16.072001 -1.7130001 0.38
-2.9879999 16.069 -1.714 0.38
-3.029 16.007 -1.707 0.34999999
-3.079 15.995 -1.707 0.44
-3.102 15.981 -1.706 0.38
-3.1470001 15.943 -1.7029999 0.40000001
-3.1949999 15.922 -1.701 0.31
-3.2409999 15.894 -1.699 0.37
-3.276 15.812 -1.6900001 0.43000001
-3.339 15.866 -1.698 0.36000001
-3.3559999 15.822 -1.694 0.33000001
-3.402 15.792 -1.691 0.38
-3.448 15.767 -1.6900001 0.43000001
-3.4879999 15.71 -1.684 0.34999999
-3.533 15.681 -1.682 0.43000001
-3.5799999 15.66 -1.681 0.34
-3.6289999 15.647 -1.6799999 0.41999999
-3.6429999 15.599 -1.675 0.34
-3.6889999 15.572 -1.674 0.38
-3.737 15.556 -1.673 0.38
-3.7820001 15.531 -1.671 0.37
-3.8410001 15.558 -1.676 0.41
-3.8840001 15.524 -1.674 0.38
-3.9349999 15.522 -1.675 0.43000001
-3.95 15.479 -1.67 0.34
-3.9960001 15.455 -1.669 0.38
-4.0469999 15.45 -1.67 0.37
-4.0939999 15.433 -1.669 0.38
-4.145 15.428 -1.67 0.38
-4.1929998 15.413 -1.67 0.44999999
-4.2329998 15.369 -1.666 0.34999999
-4.243 15.313 -1.66 0.41
-4.2810001 15.263 -1.656 0.37
-4.3410001 15.293 -1.661 0.36000001
-4.375 15.228 -1.655 0.41
-4.4200001 15.205 -1.654 0.40000001
-4.4650002 15.183 -1.653 0.34999999
-4.5170002 15.184 -1.655 0.43000001
-4.5440001 15.187 -1.656 0.40000001
-4.599 15.195 -1.659 0.36000001
-4.6370001 15.15 -1.655 0.40000001
-4.6830001 15.13 -1.654 0.38999999
-4.7309999 15.117 -1.654 0.31
-4.7800002 15.106 -1.655 0.41
-4.7930002 15.064 -1.651 0.36000001
-4.8559999 15.1 -1.6569999 0.38
-2.112 15.362 -1.705 0.41
-2.158 15.336 -1.702 0.34999999
-2.2160001 15.398 -1.711 0.38999999
-2.27 15.43 -1.715 0.41999999
-2.306 15.339 -1.705 0.34
-2.3110001 15.209 -1.689 0.44999999
-2.365 15.243 -1.6950001 0.41
-2.4030001 15.177 -1.687 0.33000001
-2.457 15.208 -1.692 0.44
-2.5139999 15.255 -1.699 0.34
-2.5650001 15.261 -1.701 0.44
-2.5829999 15.224 -1.696 0.38
-2.6329999 15.229 -1.698 0.41999999
-2.6830001 15.233 -1.7 0.41
-2.7149999 15.138 -1.689 0.36000001
-2.744 15.03 -1.676 0.43000001
-2.8050001 15.092 -1.6849999 0.44
-2.8469999 15.057 -1.682 0.36000001
-2.868 15.039 -1.6799999 0.38999999
-2.9159999 15.03 -1.6799999 0.40000001
-2.971 15.062 -1.686 0.41
-3.0150001 15.035 -1.683 0.33000001
-3.066 15.045 -1.686 0.44999999
-3.1040001 14.992 -1.6799999 0.41
-3.1429999 14.942 -1.675 0.43000001
-3.1500001 14.863 -1.666 0.40000001
-3.2049999 14.888 -1.67 0.30000001
-3.247 14.857 -1.668 0.44999999
-3.293 14.846 -1.668 0.43000001
-3.339 14.83 -1.6670001 0.36000001
-3.3789999 14.792 -1.664 0.37
-3.431 14.805 -1.666 0.41
-3.4419999 14.747 -1.66 0.38
-3.506 14.81 -1.669 0.37
-3.5480001 14.781 -1.6670001 0.37
-3.592 14.759 -1.666 0.41
-3.6389999 14.751 -1.666 0.41
-3.6789999 14.715 -1.663 0.34999999
-3.7249999 14.701 -1.663 0.44
-3.756 14.726 -1.666 0.38
-3.7950001 14.687 -1.663 0.38999999
-3.842 14.679 -1.664 0.38999999
-3.882 14.644 -1.661 0.41
-3.9089999 14.561 -1.652 0.38999999
-3.9619999 14.575 -1.655 0.34999999
-3.987 14.576 -1.656 0.43000001
-4.0349998 14.572 -1.6569999 0.33000001
-4.0869999 14.582 -1.66 0.44999999
-4.1209998 14.527 -1.655 0.41
-4.1609998 14.495 -1.652 0.38999999
-4.2090001 14.491 -1.653 0.36000001
-4.2360001 14.415 -1.645 0.44
-4.2639999 14.425 -1.647 0.34
-4.2989998 14.378 -1.643 0.44
-4.3569999 14.406 -1.648 0.36000001
-4.414 14.432 -1.654 0.43000001
-4.4390001 14.352 -1.645 0.38999999
-4.4889998 14.355 -1.647 0.36000001
-4.5139999 14.276 -1.6390001 0.41999999
-4.5679998 14.29 -1.643 0.38
-4.5819998 14.259 -1.6390001 0.41
-1.414 14.769 -1.698 0.34
-1.438 14.775 -1.699 0.51999998
-1.535 14.813 -1.705 0.44
-1.573 14.725 -1.6950001 0.38
-1.624 14.764 -1.7 0.38999999
-1.665 14.713 -1.6950001 0.41
-1.715 14.735 -1.698 0.38
-1.733 14.687 -1.692 0.38999999
-1.775 14.648 -1.688 0.43000001
-1.835 14.763 -1.7029999 0.38
-1.874 14.692 -1.6950001 0.47
-1.9119999 14.629 -1.688 0.31999999
-1.952 14.572 -1.681 0.50999999
-1.9859999 14.657 -1.692 0.30000001
-2.0250001 14.6 -1.686 0.51999998
-2.085 14.69 -1.698 0.34
-2.125 14.642 -1.693 0.47999999
-2.155 14.525 -1.679 0.38
-2.2060001 14.557 -1.684 0.41
-2.2550001 14.572 -1.687 0.38999999
-2.2650001 14.484 -1.676 0.38
-2.3110001 14.481 -1.676 0.44999999
-2.3559999 14.472 -1.676 0.34
-2.398 14.439 -1.673 0.44
-2.4400001 14.411 -1.67 0.38
-2.477 14.355 -1.664 0.41999999
-2.5209999 14.343 -1.663 0.38
-2.5439999 14.343 -1.664 0.38
-2.589 14.335 -1.664 0.38999999
-2.6359999 14.335 -1.665 0.38999999
-2.6700001 14.268 -1.6569999 0.44
-2.7179999 14.277 -1.659 0.36000001
-2.757 14.239 -1.656 0.44999999
-2.8039999 14.24 -1.6569999 0.37
-2.825 14.23 -1.656 0.44999999
-2.8670001 14.205 -1.654 0.38
-2.9030001 14.155 -1.649 0.38999999
-2.954 14.177 -1.653 0.41
-2.9920001 14.139 -1.649 0.46000001
-3.0309999 14.104 -1.646 0.38
-3.072 14.079 -1.6440001 0.38999999
-3.096 14.08 -1.645 0.38999999
-3.1459999 14.095 -1.648 0.38999999
-3.1930001 14.099 -1.65 0.44999999
-3.2479999 14.135 -1.656 0.37
-3.2820001 14.082 -1.65 0.40000001
-3.3269999 14.074 -1.65 0.38999999
-3.339 14.026 -1.645 0.43000001
-3.378 13.992 -1.642 0.41999999
-3.4170001 13.963 -1.6390001 0.34
-3.4579999 13.94 -1.638 0.47
-3.513 13.975 -1.6440001 0.41
-3.5510001 13.941 -1.641 0.36000001
-3.5880001 13.901 -1.637 0.38999999
-3.6140001 13.915 -1.6390001 0.38999999
-3.6659999 13.932 -1.643 0.40000001
-3.7049999 13.905 -1.641 0.44
-3.733 13.836 -1.6339999 0.41
-3.7820001 13.843 -1.636 0.41
-3.8180001 13.805 -1.633 0.41999999
-3.858 13.779 -1.631 0.37
-3.9200001 13.834 -1.64 0.44
-3.947 13.845 -1.642 0.37
-3.9860001 13.817 -1.64 0.38
-4.026 13.795 -1.6390001 0.44999999
-4.073 13.794 -1.64 0.36000001
-4.1079998 13.754 -1.637 0.44999999
-4.1500001 13.736 -1.636 0.40000001
-4.165 13.708 -1.633 0.28999999
-4.2020001 13.676 -1.631 0.56999999
-0.94800001 14.069 -1.7029999 0.41999999
-0.991 14.055 -1.701 0.44999999
-1.038 14.081 -1.705 0.41
-1.084 14.107 -1.709 0.36000001
-1.124 14.047 -1.701 0.44999999
-1.1670001 14.031 -1.7 0.37
-1.2079999 13.988 -1.694 0.43000001
-1.235 14.041 -1.702 0.38
-1.275 14.002 -1.697 0.46000001
-1.316 13.966 -1.693 0.38
-1.355 13.911 -1.686 0.41
-1.406 13.977 -1.6950001 0.44999999
-1.448 13.955 -1.693 0.34
-1.484 13.88 -1.683 0.44999999
-1.506 13.875 -1.683 0.28999999
-1.545 13.829 -1.677 0.47999999
-1.587 13.812 -1.676 0.37
-1.632 13.827 -1.679 0.44999999
-1.677 13.834 -1.6799999 0.28999999
-1.712 13.759 -1.671 0.47999999
-1.76 13.793 -1.676 0.34999999
-1.783 13.798 -1.677 0.44
-1.822 13.757 -1.6720001 0.34
-1.855 13.677 -1.6619999 0.41999999
-1.897 13.667 -1.6619999 0.40000001
-1.949 13.724 -1.67 0.34999999
-1.9859999 13.678 -1.665 0.44
-2.0239999 13.635 -1.66 0.34999999
-2.0369999 13.581 -1.653 0.44
-2.072 13.525 -1.646 0.31999999
-2.118 13.54 -1.649 0.38
-2.161 13.534 -1.649 0.43000001
-2.2019999 13.519 -1.648 0.36000001
-2.247 13.526 -1.65 0.46000001
-2.2620001 13.487 -1.645 0.34
-2.296 13.429 -1.638 0.43000001
-2.339 13.425 -1.6390001 0.34999999
-2.3840001 13.436 -1.641 0.41999999
-2.424 13.418 -1.64 0.33000001
-2.4630001 13.393 -1.637 0.44
-2.503 13.376 -1.636 0.33000001
-2.52 13.348 -1.633 0.5
-2.5669999 13.367 -1.637 0.31999999
-2.6040001 13.334 -1.633 0.43000001
-2.652 13.355 -1.637 0.34
-2.6860001 13.306 -1.632 0.44999999
-2.7309999 13.315 -1.6339999 0.37
-2.777 13.327 -1.637 0.44999999
-2.799 13.329 -1.638 0.41
-2.845 13.336 -1.64 0.34
-2.8840001 13.313 -1.638 0.43000001
-2.9289999 13.321 -1.64 0.38999999
-2.9690001 13.302 -1.6390001 0.38
-3.0139999 13.306 -1.641 0.37
-3.0409999 13.235 -1.632 0.44
-3.063 13.234 -1.633 0.31
-3.1059999 13.23 -1.6339999 0.44
-3.158 13.265 -1.64 0.41
-3.2079999 13.288 -1.6440001 0.36000001
-3.233 13.21 -1.635 0.41999999
-3.28 13.223 -1.638 0.38
-3.3299999 13.247 -1.643 0.38999999
-3.3340001 13.177 -1.6339999 0.40000001
-3.3740001 13.158 -1.633 0.41999999
-3.418 13.159 -1.6339999 0.34999999
-3.4619999 13.156 -1.636 0.46000001
-3.5050001 13.155 -1.637 0.37
-3.5439999 13.134 -1.636 0.44
-3.5810001 13.108 -1.633 0.34999999
-3.6070001 13.121 -1.636 0.41999999
-3.651 13.119 -1.637 0.34999999
-3.664 13.01 -1.624 0.43000001
-3.714 13.027 -1.628 0.37
-3.76 13.035 -1.63 0.44999999
-3.799 13.017 -1.63 0.34999999
-3.8469999 13.028 -1.633 0.46000001
-3.9000001 13.13 -1.648 0.56
-3.941 13.118 -1.648 0.23
-3.9749999 13.081 -1.645 0.31999999
-0.67400002 13.265 -1.682 0.22
-0.69400001 13.239 -1.678 0.36000001
-0.73799998 13.294 -1.687 0.50999999
-0.86000001 13.227 -1.678 0.18000001
-0.89999998 13.2 -1.675 0.34
-0.93900001 13.168 -1.671 0.37
-0.95899999 13.151 -1.668 0.31999999
-0.99900001 13.13 -1.666 0.38999999
-1.0420001 13.148 -1.669 0.34
-1.08 13.113 -1.664 0.34
-1.123 13.128 -1.6670001 0.38
-1.163 13.112 -1.665 0.34
-1.209 13.154 -1.6720001 0.38999999
-1.224 13.093 -1.663 0.31
-1.262 13.055 -1.659 0.34
-1.302 13.047 -1.658 0.38
-1.342 13.029 -1.656 0.31999999
-1.38 12.994 -1.652 0.34999999
-1.42 12.983 -1.651 0.34
-1.459 12.965 -1.649 0.36000001
-1.479 12.955 -1.648 0.31999999
-1.524 12.988 -1.653 0.44999999
-1.558 12.93 -1.645 0.33000001
-1.6 12.935 -1.647 0.34
-1.641 12.929 -1.647 0.40000001
-1.6720001 12.852 -1.636 0.34
-1.694 12.865 -1.6390001 0.30000001
-1.735 12.863 -1.6390001 0.34
-1.772 12.832 -1.636 0.34999999
-1.812 12.823 -1.635 0.38
-1.85 12.805 -1.633 0.30000001
-1.8839999 12.754 -1.627 0.38
-1.921 12.729 -1.624 0.36000001
-1.944 12.743 -1.627 0.33000001
-1.988 12.766 -1.631 0.38
-2.02 12.709 -1.624 0.33000001
-2.059 12.693 -1.622 0.38
-2.0940001 12.661 -1.618 0.34
-2.125 12.598 -1.61 0.34
-2.1719999 12.636 -1.617 0.34
-2.1919999 12.632 -1.617 0.31999999
-2.2290001 12.614 -1.615 0.34
-2.2690001 12.605 -1.615 0.34
-2.3150001 12.633 -1.62 0.38
-2.3570001 12.639 -1.622 0.34
-2.3929999 12.612 -1.619 0.31999999
-2.431 12.595 -1.618 0.38
-2.4430001 12.552 -1.612 0.31999999
-2.4820001 12.54 -1.6109999 0.31999999
-2.52 12.529 -1.6109999 0.38999999
-2.5580001 12.511 -1.61 0.38999999
-2.612 12.575 -1.62 0.31999999
-2.6470001 12.545 -1.617 0.34
-2.6830001 12.521 -1.615 0.36000001
-2.7049999 12.531 -1.617 0.37
-2.7479999 12.539 -1.619 0.34
-2.8039999 12.606 -1.63 0.34
-2.8499999 12.622 -1.6339999 0.34999999
-2.8599999 12.486 -1.615 0.37
-2.9059999 12.506 -1.619 0.34999999
-2.9430001 12.487 -1.618 0.31999999
-2.9679999 12.505 -1.6210001 0.37
-2.9979999 12.456 -1.615 0.36000001
-3.049 12.496 -1.623 0.36000001
-3.082 12.462 -1.619 0.31999999
-3.1059999 12.39 -1.61 0.38
-3.154 12.415 -1.615 0.36000001
-3.181 12.361 -1.609 0.31999999
-3.2179999 12.421 -1.618 0.34
-3.2539999 12.401 -1.617 0.31999999
-3.306 12.441 -1.624 0.34999999
-3.355 12.467 -1.6289999 0.38999999
-3.3889999 12.439 -1.627 0.27000001
-3.3870001 12.275 -1.604 0.37
-3.477 12.376 -1.622 0
-3.5739999 12.422 -1.632 0.059999999
-0.329 12.877 -1.683 0.5
-0.37 12.891 -1.686 0.57999998
-0.40900001 12.845 -1.679 0.60000002
-0.428 12.828 -1.677 0.5
-0.47099999 12.89 -1.686 0.60000002
-0.514 12.942 -1.694 0
-0.68099999 12.659 -1.654 0.41999999
-0.72500002 12.733 -1.665 0.56
-0.88300002 12.686 -1.659 0.46000001
-0.92299998 12.683 -1.659 0.47
-0.93699998 12.612 -1.649 0.44999999
-0.97399998 12.574 -1.6440001 0.44
-1.011 12.537 -1.6390001 0.44999999
-1.058 12.629 -1.653 0.47
-1.098 12.627 -1.653 0.41
-1.142 12.673 -1.661 0.44999999
-1.151 12.557 -1.6440001 0.5
-1.189 12.534 -1.641 0.47
-1.228 12.528 -1.641 0.47999999
-1.266 12.508 -1.638 0.46000001
-1.296 12.418 -1.626 0.38999999
-1.336 12.421 -1.627 0.44
-1.3789999 12.452 -1.632 0.41999999
-1.395 12.421 -1.628 0.44999999
-1.431 12.391 -1.624 0.41999999
-1.47 12.39 -1.624 0.44999999
-1.507 12.366 -1.6210001 0.40000001
-1.5470001 12.369 -1.623 0.46000001
-1.577 12.299 -1.613 0.49000001
-1.622 12.343 -1.62 0.44
-1.65 12.401 -1.6289999 0.43000001
-1.684 12.363 -1.624 0.47999999
-1.721 12.346 -1.623 0.46000001
-1.758 12.327 -1.6210001 0.44999999
-1.801 12.35 -1.625 0.44999999
-1.842 12.354 -1.626 0.47
-1.878 12.335 -1.624 0.47999999
-1.9 12.348 -1.627 0.46000001
-1.928 12.271 -1.6160001 0.41999999
-1.96 12.226 -1.6109999 0.46000001
-2.0039999 12.255 -1.6160001 0.47999999
-2.0469999 12.274 -1.619 0.43000001
-2.089 12.291 -1.623 0.50999999
-2.128 12.282 -1.623 0.44999999
-2.1370001 12.22 -1.614 0.44
-2.1830001 12.258 -1.6210001 0.5
-2.214 12.209 -1.614 0.40000001
-2.247 12.174 -1.61 0.47
-2.286 12.173 -1.6109999 0.44999999
-2.3210001 12.146 -1.608 0.47
-2.3540001 12.116 -1.605 0.5
-2.3789999 12.139 -1.609 0.5
-2.4200001 12.147 -1.6109999 0.52999997
-2.457 12.134 -1.61 0.49000001
-2.494 12.122 -1.61 0.46000001
-2.543 12.163 -1.617 0.47999999
-2.5829999 12.166 -1.619 0.47999999
-2.6240001 12.17 -1.62 0.5
-2.635 12.127 -1.615 0.5
-2.6700001 12.107 -1.613 0.5
-2.71 12.108 -1.614 0.44999999
-2.743 12.074 -1.6109999 0.49000001
-2.7809999 12.066 -1.6109999 0.47
-2.823 12.078 -1.614 0.44999999
-2.8399999 12.062 -1.612 0.46000001
-2.8789999 12.061 -1.613 0.54000002
-2.9200001 12.061 -1.615 0.38999999
-2.971 12.108 -1.623 0.43000001
-2.9979999 12.054 -1.6160001 0.44999999
-3.0380001 12.051 -1.617 0.44999999
-3.0780001 12.051 -1.619 0.51999998
-3.0940001 12.036 -1.617 0.5
-3.1300001 12.019 -1.6160001 0.44
-3.1730001 12.03 -1.619 0.41
-3.2130001 12.026 -1.62 0.61000001
-3.2449999 11.994 -1.617 0.27000001
-3.286 11.996 -1.619 0.41999999
0.044 12.331 -1.692 0.30000001
0.024 12.351 -1.6950001 0.50999999
-0.014 12.399 -1.702 0.31
-0.052999999 12.389 -1.7 0.56999999
-0.092 12.262 -1.681 0.20999999
-0.264 12.194 -1.671 0.28
-0.303 12.219 -1.675 0.38999999
-0.34099999 12.216 -1.675 0.38999999
-0.38 12.248 -1.6799999 0.58999997
-0.41800001 12.227 -1.677 0.13
-0.61900002 12.019 -1.646 0.28999999
-0.65899998 12.058 -1.653 0.58999997
-0.67699999 12.036 -1.649 0.15000001
-0.514 8.5220003 -1.11 0.47999999
-0.79100001 12.033 -1.65 0.27000001
-0.82599998 11.995 -1.6440001 0.51999998
-0.86400002 11.996 -1.645 0.27000001
-0.90200001 11.997 -1.646 0.51999998
-0.92199999 12.005 -1.647 0.28
-0.95700002 11.973 -1.643 0.47999999
-0.98400003 11.832 -1.6210001 0.41
-1.022 11.845 -1.624 0.41
-1.068 11.942 -1.6390001 0.37
-1.094 11.806 -1.619 0.41999999
-1.1289999 11.781 -1.6160001 0.41999999
-1.141 11.716 -1.6059999 0.36000001
-1.1799999 11.738 -1.61 0.38999999
-1.219 11.746 -1.612 0.43000001
-1.262 11.802 -1.6210001 0.34999999
-1.3 11.805 -1.622 0.44999999
-1.337 11.807 -1.623 0.34
-1.3660001 11.726 -1.6109999 0.44999999
-1.3839999 11.728 -1.612 0.41
-1.425 11.757 -1.617 0.38
-1.461 11.745 -1.6160001 0.34999999
-1.497 11.728 -1.614 0.44999999
-1.535 11.735 -1.6160001 0.34999999
-1.571 11.724 -1.615 0.41999999
-1.61 11.733 -1.617 0.37
-1.623 11.693 -1.6109999 0.46000001
-1.661 11.696 -1.612 0.30000001
-1.7 11.704 -1.614 0.49000001
-1.737 11.705 -1.615 0.38
-1.778 11.723 -1.619 0.40000001
-1.812 11.704 -1.617 0.47999999
-1.845 11.672 -1.613 0.36000001
-1.867 11.693 -1.617 0.40000001
-1.908 11.714 -1.6210001 0.38999999
-1.941 11.683 -1.617 0.41
-1.98 11.694 -1.62 0.47
-2.016 11.682 -1.619 0.36000001
-2.036 11.578 -1.603 0.40000001
-2.0739999 11.582 -1.605 0.44
-2.095 11.596 -1.608 0.43000001
-2.1359999 11.611 -1.6109999 0.47999999
-2.1789999 11.641 -1.617 0.30000001
-2.211 11.611 -1.613 0.56999999
-2.2509999 11.623 -1.6160001 0.27000001
-2.2869999 11.614 -1.6160001 0.5
-2.3069999 11.618 -1.617 0.38
-2.3429999 11.605 -1.6160001 0.41
-2.372 11.565 -1.6109999 0.47
-2.421 11.615 -1.62 0.30000001
-2.4460001 11.555 -1.612 0.5
-2.964 11.484 -1.62 0.17
-3.026 11.501 -1.624 0.19
0.86799997 11.1 -1.643 0.47999999
0.82999998 11.065 -1.637 0.20999999
0.69199997 11.092 -1.64 0.44
0.676 11.113 -1.643 0.30000001
0.63800001 11.07 -1.635 0.55000001
0.60500002 11.095 -1.6390001 0.20999999
0.5 11.093 -1.638 0.38999999
0.465 11.092 -1.638 0.38999999
0.43799999 10.834 -1.597 0.34
0.412 11.074 -1.635 0.49000001
0.377 11.07 -1.6339999 0.27000001
0.30599999 11.028 -1.627 0.16
0.19 8.5790005 -1.237 0.60000002
0.21799999 10.959 -1.615 0.31
0.184 10.97 -1.617 0.43000001
0.15000001 10.966 -1.6160001 0.40000001
0.115 10.989 -1.62 0.34999999
0.081 11.038 -1.628 0.43000001
0.046 10.987 -1.619 0.36000001
0.012 10.973 -1.617 0.41
-0.0049999999 10.96 -1.615 0.38999999
-0.039999999 10.944 -1.613 0.40000001
-0.074000001 10.928 -1.61 0.34
-0.109 10.951 -1.614 0.41
-0.296 10.89 -1.605 0.36000001
-0.329 10.866 -1.601 0.38999999
-0.36199999 10.821 -1.594 0.34
-0.39399999 10.755 -1.584 0.43000001
-0.41299999 10.815 -1.5930001 0.50999999
-0.44600001 10.794 -1.59 0.15000001
-0.61299998 10.741 -1.5829999 0.31
-0.63200003 10.775 -1.589 0.44999999
-0.52200001 8.5340004 -1.232 0.18000001
-0.546 8.4969997 -1.227 0.57999998
-0.57300001 8.4890003 -1.226 0.36000001
-0.76899999 10.788 -1.592 0.37
-0.80299997 10.786 -1.592 0.38999999
-0.83200002 10.72 -1.582 0.34
-0.84899998 10.721 -1.582 0.43000001
-0.87900001 10.684 -1.577 0.38
-0.91399997 10.693 -1.579 0.38999999
-0.95300001 10.75 -1.5880001 0.33000001
-0.98400003 10.723 -1.585 0.41
-1.016 10.694 -1.581 0.38999999
-1.049 10.693 -1.581 0.31999999
-1.067 10.695 -1.582 0.37
-1.096 10.649 -1.575 0.38
-1.1289999 10.645 -1.575 0.38
-1.163 10.647 -1.576 0.41999999
-1.197 10.648 -1.576 0.38
-1.2309999 10.65 -1.577 0.30000001
-1.245 10.622 -1.573 0.41999999
-1.28 10.632 -1.575 0.40000001
-1.313 10.624 -1.575 0.38
-1.347 10.628 -1.576 0.37
-1.382 10.633 -1.577 0.44
-1.419 10.654 -1.582 0.28999999
-1.45 10.636 -1.579 0.5
-1.464 10.61 -1.576 0.28999999
-1.494 10.582 -1.572 0.46000001
-1.53 10.599 -1.575 0.36000001
-1.568 10.625 -1.58 0.38999999
-1.601 10.618 -1.58 0.44
-1.631 10.594 -1.577 0.36000001
-1.669 10.614 -1.581 0.37
-1.686 10.615 -1.582 0.43000001
-1.7130001 10.571 -1.575 0.36000001
-1.7460001 10.565 -1.575 0.41
-1.783 10.581 -1.579 0.34
-1.822 10.609 -1.584 0.43000001
-1.853 10.589 -1.582 0.34999999
-1.8789999 10.545 -1.576 0.41999999
-1.9069999 10.606 -1.586 0.34999999
-1.9400001 10.594 -1.585 0.41999999
-1.977 10.611 -1.589 0.34
-2.01 10.599 -1.5880001 0.44999999
-2.0420001 10.587 -1.587 0.34
-2.0739999 10.576 -1.586 0.43000001
-2.1059999 10.562 -1.585 0.34
-2.1659999 10.6 -1.5930001 0.38
3.023 8.224 -1.352 0.43000001
2.9909999 8.177 -1.3430001 0.18000001
2.6340001 8.8389997 -1.4299999 0.44999999
2.6099999 8.8620005 -1.433 0.23999999
2.553 8.9779997 -1.449 0.44
2.529 9.0010004 -1.451 0.23
2.4820001 9.1079998 -1.467 0.25999999
2.4579999 9.1309996 -1.469 0.46000001
2.391 9.2259998 -1.482 0.37
2.359 9.224 -1.48 0.25999999
1.2079999 10.272 -1.619 0.52999997
1.1 10.326 -1.626 0.15000001
1.071 10.363 -1.632 0.37
1.0319999 10.309 -1.622 0.41
0.91000003 10.216 -1.604 0.14
0.88099998 10.258 -1.6109999 0.40000001
0.85100001 10.288 -1.6160001 0.43000001
0.69400001 10.134 -1.5880001 0.33000001
0.66500002 10.187 -1.596 0.41
0.62599999 10.079 -1.5779999 0.31999999
0.51899999 10.156 -1.59 0.2
0.48800001 10.17 -1.592 0.36000001
0.456 10.173 -1.592 0.44
0.259 8.5819998 -1.323 0.16
0.23199999 8.5909996 -1.324 0.38
0.206 8.5950003 -1.325 0.5
0.13600001 10.139 -1.585 0.15000001
0.104 10.148 -1.586 0.28999999
0.071999997 10.132 -1.584 0.44
0.039999999 10.156 -1.5880001 0.36000001
-0.071999997 10.142 -1.585 0.18000001
-0.094999999 9.0979996 -1.409 0.18000001
-0.27599999 10.052 -1.571 0.25999999
-0.30899999 10.082 -1.576 0.41999999
-0.34200001 10.123 -1.5829999 0.44
-0.484 10.087 -1.5779999 0.18000001
-0.51499999 10.084 -1.5779999 0.36000001
-0.546 10.064 -1.575 0.40000001
-0.579 10.098 -1.581 0.43000001
-0.51899999 8.5050001 -1.312 0.31
-0.54500002 8.5 -1.311 0.51999998
-0.55800003 8.493 -1.3099999 0.14
-0.69300002 10.122 -1.586 0.34999999
-0.72399998 10.114 -1.585 0.38
-0.75599998 10.112 -1.585 0.31999999
-0.78600001 10.092 -1.582 0.44
-0.81699997 10.079 -1.58 0.37
-0.85100001 10.11 -1.586 0.37
-0.866 10.089 -1.5829999 0.34
-0.89600003 10.071 -1.58 0.37
-0.92699999 10.064 -1.579 0.37
-0.958 10.053 -1.5779999 0.34
-0.98799998 10.036 -1.576 0.41
-1.02 10.035 -1.576 0.38
-1.051 10.024 -1.575 0.38999999
-1.072 10.075 -1.584 0.38999999
-1.103 10.06 -1.582 0.37
-1.132 10.039 -1.579 0.37
-1.164 10.037 -1.579 0.34999999
-1.1950001 10.03 -1.5779999 0.41
-1.225 10.014 -1.576 0.40000001
-1.257 10.012 -1.577 0.38999999
-1.274 10.022 -1.579 0.34
-1.307 10.028 -1.58 0.44999999
-1.341 10.043 -1.584 0.36000001
-1.375 10.06 -1.587 0.36000001
-1.406 10.05 -1.586 0.37
-1.4299999 9.9910002 -1.577 0.36000001
-1.4630001 9.9980001 -1.579 0.36000001
-1.482 10.019 -1.5829999 0.31999999
-1.511 9.9949999 -1.58 0.41
-1.541 9.9840002 -1.579 0.36000001
-1.573 9.9849997 -1.58 0.43000001
-1.609 10.006 -1.584 0.38
-1.641 10.005 -1.585 0.38999999
-1.6720001 9.9989996 -1.585 0.38
-1.7589999 10.036 -1.5930001 0.19
2.9960001 8.0319996 -1.396 0.23
2.984 8.118 -1.41 0.28999999
3.01 8.2700005 -1.437 0.43000001
2.954 8.3620005 -1.449 0.55000001
2.839 8.3260002 -1.436 0.2
2.7650001 8.3660002 -1.438 0.20999999
2.7950001 8.5489998 -1.471 0.28
2.76 8.6719999 -1.49 0.51999998
2.727 8.6639996 -1.487 0.20999999
2.6700001 8.7700005 -1.502 0.44999999
2.6259999 8.8739996 -1.517 0.2
2.6029999 8.901 -1.521 0.55000001
2.527 9.0089998 -1.535 0.47999999
2.4400001 9.1389999 -1.553 0.54000002
2.4089999 9.1389999 -1.552 0.2
2.3640001 9.2620001 -1.571 0.47999999
2.3369999 9.2770004 -1.573 0.28
2.2720001 9.3950005 -1.59 0.22
2.2460001 9.4169998 -1.5930001 0.46000001
2.1559999 9.5030003 -1.604 0.36000001
2.135 9.5480003 -1.6109999 0.30000001
2.0350001 9.5939999 -1.615 0.54000002
2.0020001 9.5889997 -1.613 0.28999999
1.141 9.632 -1.596 0.2
1.11 9.6309996 -1.595 0.46000001
1.096 9.6409998 -1.597 0.44999999
0.96200001 9.5270004 -1.574 0.30000001
0.93400002 9.5489998 -1.5779999 0.40000001
0.91900003 9.5509996 -1.5779999 0.47
0.79699999 9.5419998 -1.574 0.28999999
0.76800001 9.5500002 -1.575 0.36000001
0.741 9.6000004 -1.5829999 0.54000002
0.60600001 9.6110001 -1.584 0.31999999
0.574 9.5909996 -1.58 0.55000001
0.54299998 9.5699997 -1.576 0.23999999
0.43700001 9.5550003 -1.572 0.36000001
0.40799999 9.5860004 -1.5779999 0.41
0.37900001 9.6169996 -1.5829999 0.54000002
0.22 8.5970001 -1.401 0.56
0.19400001 8.6789999 -1.415 0.44999999
0.183 9.6400003 -1.586 0.40000001
0.046 9.6809998 -1.5930001 0.34999999
0.016000001 9.6160002 -1.581 0.52999997
-0.014 9.618 -1.582 0.27000001
-0.112 9.1020002 -1.49 0.19
-0.14 9.0930004 -1.489 0.56999999
-0.16599999 8.9610004 -1.465 0.25999999
-0.189 8.7259998 -1.424 0.47999999
-0.31900001 9.684 -1.594 0.19
-0.34799999 9.6499996 -1.5880001 0.46000001
-0.37900001 9.6660004 -1.592 0.47999999
-0.51300001 9.618 -1.584 0.20999999
-0.54400003 9.6309996 -1.587 0.37
-0.574 9.6190004 -1.585 0.49000001
-0.53299999 8.5299997 -1.392 0.38
-0.74299997 9.651 -1.5930001 0.34999999
-0.773 9.6350002 -1.59 0.41
-0.80299997 9.6379995 -1.591 0.55000001
-0.81900001 9.6429996 -1.592 0.16
-0.93800002 9.6059999 -1.5880001 0.38
-0.96899998 9.6129999 -1.589 0.33000001
-0.99800003 9.6000004 -1.5880001 0.38
-1.0089999 9.5609999 -1.581 0.54000002
-1.033 9.5030003 -1.571 0.16
-1.158 9.5349998 -1.579 0.38
-1.1900001 9.5500002 -1.5829999 0.38999999
-1.211 9.5909996 -1.59 0.38
-1.239 9.5719995 -1.5880001 0.56
-1.265 9.5389996 -1.582 0.23
-1.355 9.5279999 -1.5829999 0.28999999
-1.37 9.5279999 -1.5829999 0.41
-1.401 9.5299997 -1.584 0.41
-1.4299999 9.5170002 -1.5829999 0.55000001
-1.457 9.4949999 -1.58 0.13
3.0079999 8.2040005 -1.49 0.33000001
2.9960001 8.25 -1.497 0.31
2.948 8.3210001 -1.507 0.43000001
2.8699999 8.3509998 -1.507 0.28999999
2.8340001 8.3299999 -1.501 0.16
2.7839999 8.3990002 -1.51 0.2
2.8010001 8.54 -1.536 0.11
2.74 8.6260004 -1.548 0.38999999
2.6900001 8.7049999 -1.559 0.28999999
2.6719999 8.7419996 -1.5650001 0.30000001
2.6110001 8.8400002 -1.579 0.28999999
2.602 8.8590002 -1.582 0.31999999
2.539 8.9549999 -1.595 0.33000001
2.513 8.9709997 -1.597 0.28999999
2.4619999 9.0620003 -1.6109999 0.20999999
2.434 9.0719995 -1.6109999 0.38999999
2.348 9.0939999 -1.6109999 0.17
2.3440001 9.1969995 -1.6289999 0.40000001
2.2490001 9.2449999 -1.6339999 0.37
2.1989999 9.1680002 -1.618 0.23999999
2.1329999 9.21 -1.622 0.20999999
2.0769999 9.1000004 -1.6 0.34999999
1.9630001 9.1289997 -1.601 0.28999999
1.942 9.1680002 -1.607 0.47
1.85 9.2349997 -1.6160001 0.34
1.6900001 9.1009998 -1.586 0.34
1.668 9.1450005 -1.5930001 0.46000001
1.538 9.0780001 -1.577 0.30000001
1.526 9.0939999 -1.579 0.41
0.77999997 9.1999998 -1.582 0.22
0.75199997 9.2150002 -1.584 0.34
0.252 8.573 -1.46 0.25999999
0.22499999 8.566 -1.459 0.51999998
0.20100001 8.6940002 -1.482 0.18000001
0.1 9.276 -1.59 0.20999999
0.086000003 9.2959995 -1.5930001 0.31999999
0.056000002 9.2690001 -1.5880001 0.47
0.027000001 9.2770004 -1.59 0.15000001
-0.089000002 9.1289997 -1.562 0.20999999
-0.102 9.0699997 -1.552 0.27000001
-0.131 9.0550003 -1.549 0.5
-0.27599999 9.1490002 -1.567 0.18000001
-0.28799999 9.0790005 -1.554 0.34
-0.32499999 9.3360004 -1.602 0.16
-0.46799999 9.2589998 -1.589 0.2
-0.48300001 9.2700005 -1.591 0.30000001
-0.51200002 9.2639999 -1.59 0.44999999
-0.54400003 9.3079996 -1.598 0.25999999
-0.66900003 9.2130003 -1.582 0.31999999
-0.69499999 9.1759996 -1.576 0.28
-0.722 9.1420002 -1.5700001 0.47
-0.85000002 9.1149998 -1.567 0.28
-0.88200003 9.1540003 -1.575 0.30000001
-0.91299999 9.1759996 -1.579 0.43000001
-0.94199997 9.1750002 -1.58 0.28
-1.0700001 9.1429996 -1.577 0.28999999
-1.104 9.1870003 -1.585 0.28999999
-1.1109999 8.9980001 -1.551 0.34999999
-1.255 9.1079998 -1.574 0.16
-1.288 9.1389999 -1.581 0.28999999
-1.3150001 9.1230001 -1.579 0.44999999
-1.347 9.1409998 -1.5829999 0.2
2.954 8.309 -1.5829999 0.18000001
2.9389999 8.3509998 -1.59 0.25999999
2.8440001 8.3299999 -1.58 0.30000001
2.802 8.2910004 -1.5700001 0.13
2.8169999 8.4700003 -1.604 0.15000001
2.789 8.4729996 -1.603 0.30000001
2.74 8.5959997 -1.622 0.20999999
2.707 8.5860004 -1.619 0.25
2.631 8.5790005 -1.613 0.31999999
2.5910001 8.5439997 -1.604 0.19
2.5320001 8.6429996 -1.619 0.38
2.5120001 8.625 -1.615 0.2
2.4289999 8.6440001 -1.614 0.34
2.3900001 8.6079998 -1.605 0.18000001
2.3380001 8.6859999 -1.617 0.28
2.3099999 8.691 -1.617 0.30000001
2.2149999 8.6569996 -1.6059999 0.12
2.1960001 8.6999998 -1.613 0.16
2.1570001 8.6590004 -1.603 0.1
2.096 8.7049999 -1.609 0.31999999
2.0610001 8.6809998 -1.603 0.2
1.9579999 8.6020002 -1.584 0.15000001
1.9450001 8.6090002 -1.584 0.16
1.921 8.6300001 -1.587 0.16
1.853 8.71 -1.6 0.28999999
1.824 8.7080002 -1.598 0.33000001
1.735 8.7639999 -1.605 0.31999999
1.704 8.7519999 -1.602 0.16
1.5779999 8.6059999 -1.569 0.2
1.515 8.408 -1.53 0.07
1.5089999 8.5270004 -1.552 0.15000001
1.46 8.7320004 -1.59 0.16
1.443 8.717 -1.586 0.16
1.4069999 8.6630001 -1.575 0.19
1.3 8.698 -1.5779999 0.34999999
1.276 8.7209997 -1.582 0.34
1.168 8.6429996 -1.564 0.15000001
1.147 8.698 -1.574 0.33000001
1.117 8.6820002 -1.5700001 0.20999999
1.022 8.6969995 -1.571 0.23999999
0.99599999 8.7080002 -1.573 0.25999999
0.214 8.8079996 -1.581 0.029999999
0.18799999 8.9040003 -1.6 0.029999999
0.048 8.9519997 -1.609 0.27000001
0.034000002 8.9460001 -1.608 0.25999999
0.0060000001 8.9580002 -1.61 0
-0.133 8.835 -1.586 0.28999999
-0.145 8.7419996 -1.568 0.20999999
-0.168 8.5790005 -1.5369999 0.07
-0.30399999 8.9639997 -1.612 0.30000001
-0.33199999 8.9589996 -1.6109999 0.30000001
-0.36199999 8.993 -1.618 0.18000001
-0.47400001 8.7370005 -1.569 0.25999999
-0.50199997 8.7469997 -1.572 0.34
-0.523 8.6309996 -1.55 0.28999999
-0.54299998 8.5299997 -1.53 0.12
-0.65499997 8.7539997 -1.575 0.13
-0.685 8.7840004 -1.581 0.33000001
-0.70999998 8.7559996 -1.576 0.25
-0.74000001 8.7729998 -1.58 0.059999999
-0.86699998 8.7910004 -1.586 0.25999999
-0.89200002 8.7690001 -1.582 0.30000001
-0.92199999 8.7880001 -1.586 0.38
-0.94700003 8.7650003 -1.582 0.2
-1.071 8.7510004 -1.582 0.31
-1.099 8.7489996 -1.5829999 0.25
-1.1109999 8.6289997 -1.5599999 0.07
-1.155 8.7539997 -1.585 0.15000001
-1.255 8.7639999 -1.59 0.13
-1.286 8.7849998 -1.595 0.31
-1.312 8.7659998 -1.592 0.25
-1.34 8.7670002 -1.5930001 0.28999999
3.036 7.7859998 -1.591 0.47999999
2.9790001 7.711 -1.573 0.40000001
2.9170001 7.6950002 -1.5650001 0.20999999
2.9319999 7.809 -1.5880001 0.46000001
2.892 7.8899999 -1.601 0.54000002
2.7679999 7.777 -1.5700001 0.47999999
2.6989999 7.6599998 -1.543 0.25999999
2.4400001 7.948 -1.582 0.43000001
2.4089999 7.9330001 -1.5779999 0.43000001
2.355 7.9790001 -1.584 0.52999997
2.3329999 8 -1.587 0.38
2.267 8.0539999 -1.5930001 0.5
2.2360001 7.9910002 -1.579 0.41999999
2.1730001 8.059 -1.589 0.43000001
2.148 8.0679998 -1.59 0.41
2.0810001 8.0710001 -1.587 0.28999999
2.053 8.066 -1.585 0.54000002
1.969 8.0550003 -1.5779999 0.16
1.937 8.0310001 -1.572 0.55000001
1.925 8.0360003 -1.572 0.25
1.855 8.0799999 -1.5779999 0.38
1.822 8.0509996 -1.5700001 0.46000001
1.762 8.0830002 -1.574 0.14
1.738 8.092 -1.575 0.36000001
1.717 8.1190004 -1.579 0.49000001
1.628 8.0769997 -1.567 0.2
1.604 8.0880003 -1.568 0.51999998
1.512 8.0889997 -1.5650001 0.20999999
1.487 8.0939999 -1.5650001 0.43000001
1.454 8.0559998 -1.556 0.51999998
1.365 8.0699997 -1.556 0.40000001
1.347 8.1219997 -1.566 0.43000001
1.253 8.1059999 -1.5599999 0.31
1.223 8.0810003 -1.554 0.55000001
1.201 8.1079998 -1.558 0.22
1.1289999 8.1520004 -1.5650001 0.22
1.104 8.1590004 -1.566 0.36000001
1.086 8.1199999 -1.558 0.47999999
0.986 8.1520004 -1.562 0.34
0.96399999 8.1850004 -1.568 0.44
0.95200002 8.1899996 -1.568 0.50999999
0.84799999 8.1960001 -1.567 0.33000001
0.824 8.2180004 -1.571 0.41999999
0.79400003 8.1750002 -1.562 0.47999999
0.708 8.2279997 -1.571 0.38
0.68599999 8.2679996 -1.579 0.34999999
0.65899998 8.2659998 -1.5779999 0.55000001
0.56300002 8.1929998 -1.562 0.28
0.537 8.2040005 -1.564 0.34
0.51200002 8.2060003 -1.564 0.55000001
0.42300001 8.2399998 -1.5700001 0.18000001
0.398 8.2530003 -1.572 0.38
0.37099999 8.243 -1.5700001 0.5
0.34400001 8.224 -1.566 0.37
-0.78500003 8.2550001 -1.5779999 0.23
-0.81699997 8.3210001 -1.592 0.25999999
-0.83700001 8.2580004 -1.58 0.47
-0.95300001 8.2370005 -1.5779999 0.25
-0.98199999 8.2600002 -1.5829999 0.40000001
-1.0089999 8.2700005 -1.586 0.30000001
-1.018 8.2329998 -1.579 0.54000002
-1.15 8.2340002 -1.582 0.30000001
-1.173 8.2130003 -1.579 0.36000001
-1.186 8.2110004 -1.579 0.5
-1.214 8.2250004 -1.582 0.27000001
-2.125 8.1549997 -1.6059999 0.19
2.7490001 7.5780001 -1.607 0.57999998
2.7090001 7.54 -1.596 0.34999999
2.6440001 7.507 -1.585 0.23999999
2.6860001 7.665 -1.62 0.63999999
2.595 7.6339998 -1.607 0.43000001
2.575 7.6550002 -1.61 0.38
2.5150001 7.6750002 -1.61 0.61000001
2.4260001 7.48 -1.564 0.25999999
2.3380001 7.3670001 -1.535 0.25999999
2.3840001 7.598 -1.586 0.50999999
2.0550001 7.7719998 -1.602 0.61000001
2.0120001 7.7049999 -1.586 0.28999999
1.952 7.777 -1.598 0.41
1.92 7.7519999 -1.591 0.51999998
1.863 7.783 -1.594 0.31999999
1.841 7.8000002 -1.597 0.60000002
1.76 7.7820001 -1.589 0.20999999
1.738 7.7989998 -1.592 0.41
1.723 7.789 -1.589 0.51999998
1.654 7.8260002 -1.5930001 0.31
1.63 7.8330002 -1.594 0.62
1.6 7.8130002 -1.5880001 0.30000001
1.533 7.7979999 -1.582 0.44999999
1.51 7.8109999 -1.584 0.47999999
1.432 7.869 -1.5930001 0.34999999
1.404 7.8579998 -1.59 0.55000001
1.381 7.8699999 -1.592 0.41
1.306 7.8769999 -1.59 0.28999999
1.28 7.8740001 -1.589 0.5
1.268 7.881 -1.59 0.5
1.1619999 7.8460002 -1.579 0.38999999
1.138 7.8540001 -1.58 0.58999997
1.062 7.9450002 -1.597 0.36000001
1.036 7.9429998 -1.596 0.47999999
1.008 7.9169998 -1.59 0.58999997
0.92500001 7.9699998 -1.599 0.38
0.89999998 7.9710002 -1.598 0.62
0.87099999 7.9330001 -1.59 0.44999999
0.787 7.9770002 -1.597 0.44999999
0.76099998 7.9679999 -1.595 0.54000002
0.73400003 7.9489999 -1.59 0.49000001
0.64700001 7.9720001 -1.5930001 0.38999999
0.61900002 7.9289999 -1.584 0.44
0.59200001 7.9039998 -1.5779999 0.60000002
0.498 8.0059996 -1.598 0.38
0.48199999 7.941 -1.584 0.41999999
0.458 7.9619999 -1.5880001 0.62
0.361 8.0299997 -1.602 0.31999999
0.336 8.0539999 -1.607 0.40000001
0.322 7.9980001 -1.595 0.63
0.296 7.993 -1.5930001 0.38999999
0.19599999 7.9959998 -1.5930001 0.34999999
0.171 8.0360003 -1.602 0.41999999
0.15899999 8.0319996 -1.601 0.60000002
0.133 8.0209999 -1.598 0.15000001
0.032000002 7.9910002 -1.592 0.41
0.02 7.9460001 -1.582 0.44
-0.0049999999 7.948 -1.582 0.61000001
-0.131 7.9879999 -1.591 0.47999999
-0.14300001 7.9819999 -1.59 0.40000001
-0.168 7.9640002 -1.586 0.60000002
-0.294 7.993 -1.5930001 0.54000002
-0.31 8.0649996 -1.609 0.54000002
2.4230001 7.3369999 -1.599 0.40000001
2.3989999 7.3410001 -1.598 0.41
2.3510001 7.3909998 -1.605 0.55000001
2.325 7.3889999 -1.603 0.31999999
2.27 7.4569998 -1.614 0.54000002
2.24 7.4439998 -1.609 0.34999999
2.1760001 7.441 -1.604 0.61000001
2.1010001 7.2709999 -1.563 0.28
1.719 7.5710001 -1.607 0.33000001
1.691 7.5599999 -1.603 0.61000001
1.631 7.5689998 -1.602 0.25
1.599 7.5359998 -1.5930001 0.54000002
1.577 7.5500002 -1.596 0.37
1.512 7.5960002 -1.602 0.28999999
1.482 7.5700002 -1.596 0.56999999
1.409 7.6389999 -1.608 0.30000001
1.376 7.5970001 -1.597 0.56999999
1.35 7.5879998 -1.594 0.34999999
1.291 7.6009998 -1.595 0.23
1.2539999 7.5279999 -1.577 0.55000001
1.234 7.5549998 -1.582 0.47999999
1.168 7.6009998 -1.59 0.23
1.1569999 7.6100001 -1.592 0.34999999
1.1339999 7.6160002 -1.592 0.62
1.033 7.5929999 -1.584 0.34
1.023 7.6100001 -1.5880001 0.51999998
1.005 7.6550002 -1.597 0.46000001
0.93099999 7.6550002 -1.595 0.15000001
0.90799999 7.664 -1.596 0.41999999
0.88499999 7.6719999 -1.598 0.63999999
0.87300003 7.677 -1.599 0.37
0.80400002 7.7179999 -1.6059999 0.25999999
0.778 7.7030001 -1.602 0.34
0.75199997 7.6820002 -1.597 0.63
0.66399997 7.6609998 -1.59 0.27000001
0.64600003 7.7290001 -1.605 0.28999999
0.61799997 7.6810002 -1.594 0.63
0.59399998 7.6900001 -1.596 0.23999999
0.509 7.6960001 -1.596 0.28
0.48500001 7.698 -1.596 0.54000002
0.46000001 7.678 -1.591 0.41
0.377 7.7179999 -1.599 0.38
0.35299999 7.7270002 -1.6 0.34
0.33000001 7.7449999 -1.604 0.62
0.241 7.645 -1.581 0.30000001
0.21799999 7.6830001 -1.589 0.33000001
0.197 7.777 -1.61 0.49000001
0.17200001 7.7820001 -1.6109999 0.33000001
0.085000001 7.6539998 -1.582 0.43000001
0.061000001 7.697 -1.592 0.30000001
0.037 7.698 -1.592 0.44999999
0.013 7.6799998 -1.5880001 0.5
-0.071000002 7.6560001 -1.5829999 0.38
-0.096000001 7.6869998 -1.59 0.30000001
-0.12 7.6989999 -1.592 0.63999999
-0.14399999 7.7140002 -1.596 0.36000001
-0.229 7.6859999 -1.59 0.30000001
-0.252 7.6739998 -1.5880001 0.63
-0.278 7.724 -1.599 0.37
-0.38699999 7.7150002 -1.598 0.25999999
-0.41100001 7.71 -1.597 0.55000001
-0.435 7.6929998 -1.594 0.31999999
-0.458 7.6719999 -1.589 0.56
-0.54299998 7.6859999 -1.594 0.2
-0.56999999 7.7220001 -1.602 0.47
-0.59200001 7.6869998 -1.595 0.33000001
-0.616 7.6869998 -1.595 0.62
-0.72500002 7.677 -1.595 0.38
-0.75400001 7.7329998 -1.608 0.41
-0.77700001 7.7129998 -1.604 0.40000001
-0.80199999 7.7210002 -1.6059999 0.55000001
-0.884 7.6880002 -1.601 0.16
-0.90899998 7.6869998 -1.602 0.41999999
-0.935 7.704 -1.6059999 0.44
-0.96200001 7.7259998 -1.612 0.31999999
-1.545 7.6500001 -1.6160001 0.16
-1.619 7.7049999 -1.631 0.46000001
-1.842 7.625 -1.625 0.18000001
2.0599999 7.0869999 -1.586 0.36000001
1.975 7.0840001 -1.581 0.33000001
1.962 7.1240001 -1.589 0.49000001
1.887 7.1139998 -1.582 0.30000001
1.878 7.1729999 -1.595 0.50999999
1.77 6.98 -1.545 0.27000001
1.783 7.125 -1.5779999 0.47999999
1.692 6.849 -1.511 0.2
1.296 7.0910001 -1.5470001 0.20999999
1.311 7.3039999 -1.596 0.30000001
1.301 7.3140001 -1.598 0.49000001
1.197 7.2550001 -1.58 0.37
1.174 7.2579999 -1.58 0.5
1.099 7.3049998 -1.5880001 0.34
1.08 7.3340001 -1.594 0.5
1.05 7.2909999 -1.5829999 0.33000001
0.98699999 7.2529998 -1.572 0.23999999
0.97100002 7.3119998 -1.586 0.36000001
0.93099999 7.1810002 -1.554 0.17
0.90700001 7.1690001 -1.551 0.15000001
0.86500001 7.3000002 -1.58 0.30000001
0.84399998 7.3200002 -1.584 0.41999999
0.82300001 7.3460002 -1.589 0.47999999
0.73000002 7.3439999 -1.586 0.30000001
0.71799999 7.3429999 -1.586 0.41999999
0.69599998 7.3569999 -1.589 0.5
0.60100001 7.3260002 -1.58 0.33000001
0.57800001 7.3400002 -1.582 0.43000001
0.56800002 7.348 -1.584 0.47999999
0.47600001 7.3720002 -1.5880001 0.23
0.44999999 7.3210001 -1.576 0.31999999
0.421 7.2199998 -1.552 0.34999999
0.41600001 7.329 -1.577 0.16
0.347 7.329 -1.576 0.23
0.32499999 7.375 -1.587 0.30000001
0.30399999 7.4130001 -1.595 0.49000001
0.28099999 7.4369998 -1.601 0.38999999
0.197 7.336 -1.577 0.34
0.17399999 7.3699999 -1.585 0.31
0.152 7.3979998 -1.591 0.54000002
0.141 7.421 -1.596 0.25999999
0.046999998 7.3779998 -1.586 0.34
0.024 7.3720002 -1.585 0.36000001
0.001 7.3740001 -1.585 0.50999999
-0.011 7.3369999 -1.576 0.22
-0.104 7.3790002 -1.586 0.38999999
-0.127 7.3870001 -1.5880001 0.38
-0.147 7.263 -1.5599999 0.17
-0.163 7.4520001 -1.604 0.15000001
-0.25299999 7.3390002 -1.5779999 0.38
-0.27700001 7.375 -1.586 0.52999997
-0.301 7.382 -1.5880001 0.30000001
-0.40700001 7.4099998 -1.596 0.40000001
-0.43200001 7.434 -1.602 0.30000001
-0.45300001 7.3990002 -1.594 0.51999998
-0.46599999 7.4180002 -1.599 0.34999999
-0.56 7.4169998 -1.6 0.23999999
-0.58099997 7.3940001 -1.595 0.41
-0.60299999 7.381 -1.592 0.38
-0.61400002 7.3720002 -1.59 0.47
-0.73100001 7.3730001 -1.5930001 0.38999999
-0.75599998 7.3800001 -1.595 0.31999999
-0.76599997 7.369 -1.5930001 0.51999998
-0.79500002 7.4169998 -1.605 0.31
-0.88800001 7.4109998 -1.6059999 0.22
-0.90100002 7.4190001 -1.608 0.38
-0.92699999 7.4310002 -1.612 0.34
-0.95099998 7.434 -1.613 0.50999999
-0.97299999 7.4250002 -1.612 0.28999999
-1.056 7.4200001 -1.613 0.27000001
-1.0779999 7.4109998 -1.612 0.36000001
-1.101 7.408 -1.612 0.34
-1.128 7.427 -1.617 0.49000001
-1.4349999 7.2789998 -1.595 0.2
1.848 6.9450002 -1.601 0.25999999
1.8380001 6.9920001 -1.6109999 0.51999998
1.752 6.8870001 -1.582 0.23999999
1.749 6.9660001 -1.6 0.56
1.673 6.757 -1.5470001 0.28999999
1.641 6.8109999 -1.557 0.18000001
1.6670001 7.0110002 -1.605 0.56
1.612 6.8759999 -1.571 0.31999999
1.577 6.9720001 -1.591 0.31
1.558 6.9899998 -1.595 0.55000001
1.439 6.763 -1.535 0.27000001
1.448 6.8559999 -1.558 0.38
1.018 6.737 -1.511 0.16
1.057 7.1339998 -1.607 0.44999999
0.96200001 7.1139998 -1.599 0.33000001
0.94199997 7.1290002 -1.602 0.47
0.93199998 7.1420002 -1.604 0.37
0.83499998 6.915 -1.548 0.20999999
0.83999997 7.131 -1.599 0.28999999
0.81599998 7.1279998 -1.598 0.55000001
0.79299998 7.125 -1.596 0.31999999
0.73400003 7.0960002 -1.5880001 0.25
0.71799999 7.1659999 -1.604 0.28999999
0.69499999 7.1609998 -1.603 0.55000001
0.67400002 7.1799998 -1.607 0.22
0.61299998 7.1269999 -1.5930001 0.25
0.59299999 7.1620002 -1.601 0.30000001
0.56999999 7.1599998 -1.6 0.56
0.54900002 7.1729999 -1.603 0.20999999
0.493 7.1849999 -1.604 0.19
0.46799999 7.158 -1.597 0.28
0.44499999 7.145 -1.594 0.56
0.42399999 7.164 -1.598 0.36000001
0.345 7.1690001 -1.598 0.31
0.322 7.1620002 -1.596 0.41
0.30000001 7.178 -1.6 0.52999997
0.221 7.1789999 -1.6 0.28999999
0.198 7.1760001 -1.599 0.25999999
0.176 7.1630001 -1.596 0.51999998
0.154 7.191 -1.602 0.47
0.074000001 7.1589999 -1.594 0.31
0.052000001 7.1469998 -1.591 0.38
0.028999999 7.1479998 -1.591 0.55000001
0.0070000002 7.1789999 -1.599 0.23999999
-0.071999997 7.1820002 -1.6 0.34
-0.094999999 7.1880002 -1.601 0.41
-0.117 7.178 -1.599 0.55000001
-0.14 7.1789999 -1.599 0.22
-0.219 7.1929998 -1.603 0.41
-0.242 7.2140002 -1.608 0.55000001
-0.26499999 7.2129998 -1.608 0.25
-0.36500001 7.158 -1.596 0.31999999
-0.389 7.1900001 -1.604 0.33000001
-0.41299999 7.21 -1.609 0.56
-0.435 7.2119999 -1.61 0.34999999
-0.51200002 7.1659999 -1.6 0.31999999
-0.537 7.1999998 -1.609 0.28999999
-0.56400001 7.2600002 -1.624 0.44999999
-0.588 7.27 -1.626 0.54000002
-0.66100001 7.1890001 -1.609 0.17
-0.68699998 7.224 -1.617 0.38
-0.71200001 7.2410002 -1.622 0.34999999
-0.73400003 7.237 -1.622 0.56
-0.75599998 7.2270002 -1.62 0.31
-0.833 7.1929998 -1.614 0.31
-0.86500001 7.2690001 -1.633 0.28999999
-0.87900001 7.1929998 -1.615 0.41999999
-0.903 7.2080002 -1.619 0.54000002
-0.92400002 7.1919999 -1.6160001 0.20999999
-1.003 7.1750002 -1.615 0.31
-1.025 7.1719999 -1.615 0.34
-1.0549999 7.2210002 -1.627 0.41
-1.072 7.1810002 -1.618 0.49000001
-1.375 7.1230001 -1.617 0.19
-1.494 7.026 -1.6 0.2
1.489 6.6040001 -1.572 0.2
1.503 6.7160001 -1.6 0.41
1.466 6.6469998 -1.581 0.36000001
1.405 6.6719999 -1.584 0.23
1.392 6.7119999 -1.5930001 0.44999999
1.225 6.757 -1.596 0.25999999
1.1720001 6.5770001 -1.549 0.07
1.123 6.4180002 -1.508 0.16
1.114 6.7459998 -1.589 0.31999999
1.105 6.7579999 -1.591 0.34
1.03 6.4200001 -1.505 0.18000001
0.66000003 6.73 -1.5700001 0.20999999
0.64399999 6.7950001 -1.586 0.34
0.597 6.5 -1.511 0.2
0.54699999 6.6500001 -1.5470001 0.17
0.546 6.7709999 -1.577 0.30000001
0.52700001 6.809 -1.587 0.40000001
0.49700001 6.6830001 -1.5549999 0.23
0.41800001 6.79 -1.58 0.37
0.40700001 6.7849998 -1.5779999 0.30000001
0.384 6.7490001 -1.569 0.059999999
0.301 6.8060002 -1.582 0.31999999
0.29100001 6.8000002 -1.581 0.28
0.26800001 6.77 -1.573 0.07
0.184 6.8000002 -1.58 0.2
0.163 6.8239999 -1.586 0.25999999
0.152 6.8460002 -1.591 0.36000001
0.13 6.7740002 -1.573 0.059999999
0.045000002 6.7789998 -1.574 0.22
0.023 6.8080001 -1.581 0.37
0.013 6.816 -1.5829999 0.27000001
-0.0089999996 6.8140001 -1.5829999 0.31
-0.094999999 6.8470001 -1.591 0.23999999
-0.116 6.835 -1.5880001 0.34
-0.127 6.8150001 -1.5829999 0.31
-0.147 6.7680001 -1.572 0.059999999
-0.233 6.802 -1.581 0.2
-0.25600001 6.8270001 -1.587 0.31999999
-0.266 6.809 -1.5829999 0.07
-0.37400001 6.8210001 -1.587 0.2
-0.38600001 6.842 -1.5930001 0.31
-0.40700001 6.8330002 -1.591 0.25
-0.426 6.803 -1.5829999 0.07
-0.52399999 6.8150001 -1.5880001 0.31999999
-0.546 6.823 -1.591 0.36000001
-0.56999999 6.8509998 -1.598 0.34999999
-0.588 6.816 -1.59 0.059999999
-0.667 6.8499999 -1.6 0.25
-0.68800002 6.8379998 -1.597 0.31999999
-0.71399999 6.882 -1.609 0.31999999
-0.72799999 6.8060002 -1.591 0.059999999
-0.82499999 6.8010001 -1.592 0.31999999
-0.84600002 6.7950001 -1.591 0.30000001
-0.86900002 6.8060002 -1.594 0.34999999
-0.88700002 6.7820001 -1.589 0
-0.98799998 6.7989998 -1.597 0.28
-1.007 6.7849998 -1.594 0.34999999
-1.029 6.7870002 -1.595 0.28999999
-1.052 6.7909999 -1.597 0.14
-1.272 6.6810002 -1.579 0.11
1.193 6.5359998 -1.609 0.31
1.177 6.5669999 -1.6160001 0.36000001
1.14 6.4790001 -1.591 0.47999999
1.103 6.5679998 -1.613 0.34
1.089 6.6069999 -1.622 0.33000001
1.059 6.5560002 -1.608 0.55000001
0.98500001 6.4200001 -1.5700001 0.23999999
0.98199999 6.5380001 -1.6 0.34999999
0.95899999 6.5219998 -1.595 0.57999998
0.89999998 6.2659998 -1.527 0.28
0.87300003 6.5089998 -1.5880001 0.34
0.861 6.493 -1.584 0.41
0.838 6.4780002 -1.579 0.50999999
0.73699999 6.1589999 -1.494 0.2
0.75999999 6.5149999 -1.586 0.31999999
0.73299998 6.4640002 -1.572 0.52999997
0.685 6.1399999 -1.487 0.23999999
0.28400001 6.4889998 -1.5700001 0.22
0.266 6.5229998 -1.5779999 0.44
0.19400001 6.5349998 -1.581 0.28
0.17299999 6.526 -1.5779999 0.40000001
0.153 6.5500002 -1.584 0.36000001
0.133 6.5500002 -1.584 0.51999998
0.061000001 6.5549998 -1.585 0.34
0.039999999 6.5570002 -1.586 0.34
0.02 6.5489998 -1.584 0.47
-0.001 6.5440001 -1.582 0.34999999
-0.072999999 6.5700002 -1.589 0.34999999
-0.093999997 6.5619998 -1.587 0.34
-0.115 6.5809999 -1.592 0.47999999
-0.13500001 6.5560002 -1.586 0.41999999
-0.207 6.5419998 -1.5829999 0.28
-0.228 6.5549998 -1.586 0.49000001
-0.248 6.5560002 -1.587 0.41
-0.33899999 6.5159998 -1.577 0.31
-0.361 6.5430002 -1.585 0.31999999
-0.38100001 6.5359998 -1.5829999 0.43000001
-0.403 6.5580001 -1.589 0.47999999
-0.47299999 6.5209999 -1.581 0.25
-0.493 6.5100002 -1.5779999 0.40000001
-0.514 6.52 -1.581 0.28999999
-0.53600001 6.533 -1.585 0.51999998
-0.60699999 6.5209999 -1.584 0.14
-0.63300002 6.5809999 -1.6 0.34
-0.65200001 6.5560002 -1.594 0.38999999
-0.67199999 6.5500002 -1.5930001 0.46000001
-0.68000001 6.5219998 -1.586 0.40000001
-0.75999999 6.5009999 -1.5829999 0.27000001
-0.78100002 6.4990001 -1.5829999 0.38999999
-0.80500001 6.527 -1.591 0.27000001
-0.81199998 6.5009999 -1.584 0.49000001
-0.83200002 6.4980001 -1.584 0.44
-0.91600001 6.507 -1.589 0.23
-0.94099998 6.5339999 -1.597 0.36000001
-0.94999999 6.5250001 -1.595 0.28999999
-0.963 6.4650002 -1.58 0.55000001
-0.98100001 6.4460001 -1.576 0.31
-1.0930001 6.4359999 -1.5779999 0.2
