# .PCD v0.7 - Point Cloud Data file format
VERSION 0.7
FIELDS x y z intensity
SIZE 4 4 4 4
TYPE F F F F
COUNT 1 1 1 1
WIDTH 1371
HEIGHT 1
VIEWPOINT 0 0 0 1 0 0 0
POINTS 1371
DATA ascii
-6.7069998 -9.4449997 0.384 0.31999999
-6.625 -9.3929996 0.38299999 0.28
-6.5440001 -9.3400002 0.38100001 0.31
-6.461 -9.2840004 0.38 0.20999999
-6.4239998 -9.2629995 0.37900001 0.44
-6.3449998 -9.21 0.37799999 0.25
17.424 -24.461 0.66500002 0
4.6810002 -4.152 0.303 0
4.6810002 -4.125 0.303 0
4.6859999 -4.1040001 0.30199999 0
4.7259998 -4.1129999 0.303 0
4.349 -3.5580001 0.29300001 0
4.3449998 -3.5439999 0.29300001 0
4.3439999 -3.52 0.29300001 0
4.3829999 -3.529 0.29300001 0
24.117001 9.0039997 0.46700001 0.12
24.091999 9.0810003 0.46700001 0.079999998
-0.19599999 5.0180001 0.25799999 0
-0.20999999 4.9790001 0.25799999 0
-0.22499999 4.9710002 0.25799999 0
-0.234 4.9840002 0.25799999 0.14
-0.46399999 8.401 0.292 0.25
-8.3909998 16.518 0.39399999 0.18000001
-8.3610001 16.330999 0.39300001 0
-8.5030003 16.481001 0.39500001 0
-21.201 35.755001 0.62699997 0
-29.922001 -22.664 0.58700001 0
-9.4420004 -10.342 0.34900001 0.23999999
-9.3900003 -10.351 0.34799999 0.34
-9.3079996 -10.325 0.34799999 0.34
-10.187 -11.375 0.36199999 0.17
-9.8599997 -11.114 0.35699999 0.31
-8.7159996 -10.366 0.34400001 0.079999998
-8.4709997 -10.203 0.34099999 0.28
-8.3529997 -10.125 0.34 0.2
-8.2440004 -10.025 0.338 0.18000001
-8.1359997 -9.9560003 0.33700001 0.23
-8.0050001 -9.8590002 0.336 0.2
-7.8860002 -9.7749996 0.33399999 0.23
-7.7620001 -9.6820002 0.333 0.2
-7.631 -9.5799999 0.331 0.30000001
-7.539 -9.4940004 0.33000001 0.25999999
-7.4130001 -9.3950005 0.32800001 0.25
-7.283 -9.2910004 0.32699999 0.18000001
-7.1719999 -9.2080002 0.32499999 0.28999999
-7.0890002 -9.1599998 0.324 0.28999999
-7.0019999 -9.1059999 0.32300001 0.28
-6.934 -9.0760002 0.32300001 0.33000001
-6.947 -9.1230001 0.32300001 0.27000001
-6.8920002 -9.1099997 0.32300001 0.38
-6.8670001 -9.1359997 0.32300001 0.19
-9.5120001 -12.84 0.36899999 0.23
-9.4359999 -12.821 0.368 0.27000001
-9.4490004 -12.923 0.36899999 0.57999998
-8.934 -12.672 0.36399999 0.43000001
-8.493 -13.386 0.36700001 0.58999997
-8.4300003 -13.381 0.36700001 0.19
17.341999 -24.546 0.51099998 0
17.400999 -24.465 0.51099998 0
4.711 -4.2129998 0.271 0.19
4.7150002 -4.1900001 0.271 0.20999999
4.7220001 -4.1700001 0.271 0.31
4.7259998 -4.1469998 0.271 0.50999999
4.7529998 -4.1440001 0.271 0.23999999
4.349 -3.5840001 0.264 0.17
4.349 -3.562 0.264 0.25
4.3590002 -3.5469999 0.264 0.33000001
4.3779998 -3.539 0.264 0.43000001
4.3920002 -3.5280001 0.264 0.18000001
23.971001 8.9610004 0.287 0.25999999
52.660999 25.124001 0.391 0
47.238998 23.736 0.373 0.1
51.884998 26.169001 0.38999999 0.17
51.662998 26.261999 0.389 0.31999999
-0.18700001 4.8639998 0.222 0
-0.20299999 4.8629999 0.222 0
-0.219 4.8940001 0.222 0
-8.342 16.372 0.26499999 0.31999999
-8.375 16.309 0.26499999 0
-20 38.726002 0.34400001 0
-21 35.701 0.33700001 0
-21.107 35.625999 0.33700001 0
-29.780001 -22.620001 0.32499999 0
-9.3039999 -10.234 0.25 0.34999999
-9.29 -10.284 0.25 0.15000001
-11.618 -14.27 0.26499999 0.34999999
-8.8789997 -12.641 0.255 0.62
-8.4440002 -13.266 0.25600001 0.14
-8.3870001 -13.269 0.25600001 0.37
-5.6110001 -11.564 0.24699999 0.50999999
17.247999 -24.406 0.301 0.14
17.337999 -24.371 0.301 0.14
17.424999 -24.330999 0.301 0
17.539 -24.327999 0.301 0.13
4.6100001 -4.1059999 0.226 0
4.605 -4.0749998 0.226 0
4.605 -4.0630002 0.226 0
4.6230001 -4.052 0.226 0
4.6370001 -4.039 0.226 0
4.243 -3.4979999 0.22400001 0
4.25 -3.4809999 0.22400001 0
4.2550001 -3.474 0.22400001 0
4.2600002 -3.4560001 0.22400001 0
4.283 -3.4519999 0.22400001 0.029999999
24.150999 9.0930004 0.16599999 0.5
51.962002 25.011 0.117 0
51.93 26.212999 0.116 0.1
51.769001 26.336 0.116 0.11
51.671001 26.490999 0.117 0
-0.212 5.0760002 0.199 0.27000001
-0.228 5.0669999 0.199 0.2
-0.244 5.0710001 0.199 0.14
-0.46900001 8.54 0.193 0.34999999
-0.49599999 8.5299997 0.193 0.46000001
-0.52700001 8.6079998 0.193 0.66000003
-8.4530001 16.525999 0.178 0.31999999
-8.5179996 16.525999 0.178 0.46000001
-21.212999 35.806999 0.142 0
-33.243 53.938999 0.108 0
-29.895 -22.773001 0.148 0
-9.427 -10.383 0.185 0.33000001
-9.3789997 -10.395 0.185 0.51999998
-11.709 -14.427 0.178 0.47999999
-8.9200001 -12.726 0.182 0.63999999
17.497 -24.621 0.16 0
4.7709999 -4.243 0.197 0.25
4.7589998 -4.2049999 0.197 0.20999999
4.777 -4.1939998 0.197 0.38
4.7930002 -4.1820002 0.197 0.41
4.8060002 -4.1669998 0.197 0.19
4.4200001 -3.622 0.198 0.25
4.4050002 -3.5869999 0.198 0.20999999
4.4239998 -3.579 0.198 0.38999999
4.4289999 -3.5599999 0.198 0.20999999
4.454 -3.5569999 0.198 0.090000004
24.051001 9.0670004 0.003 0.31999999
51.432999 25.011999 -0.245 0.11
46.933998 23.009001 -0.206 0.18000001
47.035 23.243 -0.208 0
52.126999 26.164 -0.25400001 0
51.823002 26.114 -0.252 0.1
-0.197 4.9840002 0.167 0
-0.205 4.9899998 0.167 0
-0.223 5.0289998 0.16599999 0
-0.463 8.4610004 0.139 0.20999999
-0.47799999 8.4949999 0.139 0.41999999
-8.3959999 16.365999 0.061000001 0.36000001
-21.146999 35.723 -0.121 0
-29.827999 -22.712999 -0.090000004 0
-9.3809996 -10.311 0.096000001 0.20999999
-9.3459997 -10.338 0.096000001 0.44
-11.692 -14.305 0.059999999 0.30000001
-11.698 -14.358 0.059999999 0.27000001
-11.643 -14.382 0.059999999 0.56999999
-11.616 -14.442 0.059999999 0.33000001
-11.578 -14.487 0.059999999 0.54000002
-8.927 -12.615 0.083999999 0.46000001
-8.9069996 -12.67 0.083999999 0.25
-8.8660002 -12.697 0.083999999 0.58999997
-5.6750002 -11.683 0.104 0.23999999
-5.632 -11.688 0.104 0.46000001
17.384001 -24.454 -0.030999999 0.23
4.6919999 -4.1560001 0.15700001 0
4.6939998 -4.145 0.15700001 0
4.7090001 -4.131 0.15700001 0
4.7140002 -4.1100001 0.15700001 0
4.777 -4.1389999 0.156 0.079999998
4.3629999 -3.5769999 0.162 0
4.3699999 -3.5599999 0.162 0
4.3639998 -3.5439999 0.162 0
4.3569999 -3.5150001 0.162 0
24.094999 9.0299997 -0.155 0.25999999
24.031 9.0930004 -0.155 0.20999999
47.484001 23.041 -0.53399998 0
-0.20200001 5.02 0.13500001 0.090000004
-0.21699999 5.0029998 0.13500001 0
-0.234 5.0159998 0.13500001 0.13
-0.46799999 8.5150003 0.086000003 0.25999999
-0.47999999 8.4919996 0.086000003 0.63999999
-8.427 16.472 -0.054000001 0.17
-8.4759998 16.440001 -0.054000001 0.50999999
-8.5209999 16.464001 -0.054000001 0.13
-22.405001 38.082001 -0.414 0
-21.274 35.648998 -0.37599999 0
-29.822001 -22.721001 -0.31999999 0
-9.3540001 -10.337 0.0099999998 0.44999999
-9.3339996 -10.379 0.0099999998 0.25
-11.646 -14.398 -0.054000001 0.46000001
-8.868 -12.696 -0.012 0.69
-5.645 -11.692 0.024 0.57999998
-5.625 -11.697 0.024 0.47
17.431999 -24.444 -0.215 0.44
4.7129998 -4.177 0.117 0.15000001
4.7319999 -4.1680002 0.117 0.19
4.671 -4.0890002 0.119 0.36000001
4.7470002 -4.1290002 0.117 0.2
4.756 -4.1100001 0.117 0.079999998
4.368 -3.5680001 0.127 0.2
4.368 -3.5450001 0.127 0.2
4.3870001 -3.5380001 0.127 0.36000001
24.104 9.0430002 -0.33500001 0.49000001
-0.191 5.0430002 0.098999999 0
-0.206 5.0190001 0.1 0
-0.222 5.006 0.1 0
-0.47999999 8.5270004 0.026000001 0.34
-0.50599998 8.5190001 0.026000001 0.16
-8.4540005 16.48 -0.183 0.30000001
-8.5129995 16.466999 -0.184 0.34
-22.379999 38.083 -0.72100002 0
-22.546 38.091999 -0.72299999 0
-21.275 35.683998 -0.66600001 0
-9.0299997 -2.2079999 0.0099999998 0.14
-21.378 -16.393999 -0.36000001 0
-9.3830004 -10.346 -0.088 0.27000001
-9.3520002 -10.377 -0.088 0.36000001
-11.642 -14.38 -0.183 0.23
-8.8970003 -12.698 -0.12 0.44999999
-8.8610001 -12.732 -0.12 0.23
17.433001 -24.443001 -0.42399999 0.17
4.7049999 -4.1810002 0.072999999 0
4.7290001 -4.1760001 0.072999999 0
4.7389998 -4.158 0.072999999 0
4.7210002 -4.1300001 0.074000001 0
4.743 -4.1230001 0.072999999 0
4.3720002 -3.573 0.086999997 0
4.3769999 -3.5539999 0.086999997 0
4.3870001 -3.5510001 0.086999997 0
24.049 9.0109997 -0.465 0
24.106001 9.1190004 -0.46700001 0.13
-0.20999999 5.0240002 0.074000001 0
-0.227 5.052 0.072999999 0
-0.48300001 8.5419998 -0.017999999 0.44999999
-0.50999999 8.552 -0.018999999 0.31999999
-8.4200001 16.525 -0.27900001 0.18000001
-8.4460001 16.448999 -0.27700001 0.34999999
-22.41 37.959999 -0.94499999 0
-21.256001 35.750999 -0.88 0
-24.15 40.324001 -1.021 0
-9.0819998 -2.1670001 -0.039000001 0.38
-9.0760002 -2.1960001 -0.039000001 0.20999999
-9.4420004 -10.366 -0.161 0.25999999
-9.4020004 -10.389 -0.161 0.47
-11.683 -14.442 -0.28 0.28999999
20.093 -28.551001 -0.70599997 0.16
17.375999 -24.532 -0.579 0.16
17.462 -24.49 -0.57999998 0.16
4.7119999 -4.204 0.039999999 0
4.724 -4.1869998 0.039999999 0.16
4.7379999 -4.1739998 0.039999999 0
4.7529998 -4.1599998 0.039999999 0
4.7529998 -4.1479998 0.039999999 0.079999998
4.3829999 -3.6040001 0.057 0
4.401 -3.595 0.057 0
4.408 -3.5769999 0.057 0
4.401 -3.5599999 0.057 0.11
-0.2 5.0419998 0.043000001 0
-0.214 5.007 0.044 0
-0.23 5.0009999 0.044 0.07
-0.23999999 5.052 0.041999999 0.079999998
-0.46700001 8.5229998 -0.068999998 0.18000001
-0.49200001 8.4879999 -0.068000004 0.57999998
-8.4200001 16.474001 -0.38800001 0.36000001
-8.4799995 16.462999 -0.38800001 0.37
-22.283001 38.047001 -1.207 0
-22.52 38.176998 -1.214 0
-21.222 35.716 -1.125 0
-25.346001 42.363998 -1.376 0
-9.0679998 -2.142 -0.093999997 0.14
-9.0419998 -2.1659999 -0.093000002 0.47999999
-9.0450001 -2.197 -0.093999997 0.18000001
-9.382 -10.347 -0.243 0.41
-9.3509998 -10.378 -0.243 0.33000001
-11.694 -14.401 -0.389 0.28999999
19.632 -27.896 -0.88700002 0.16
17.351999 -24.487 -0.75599998 0.16
17.618999 -24.535999 -0.76200002 0.22
4.711 -4.1989999 0.0020000001 0.19
4.7220001 -4.1820002 0.0020000001 0.16
4.7410002 -4.1719999 0.0020000001 0.38
4.7399998 -4.1459999 0.003 0
4.7459998 -4.1240001 0.003 0.11
4.3530002 -3.592 0.024 0.090000004
4.3660002 -3.579 0.024 0.16
4.3670001 -3.5569999 0.024 0.14
4.3590002 -3.5280001 0.025 0
4.4180002 -3.553 0.023 0.1
-0.19400001 4.9699998 0.012 0
-0.212 5.027 0.0099999998 0
-0.222 5.0609999 0.0089999996 0
-0.236 5.0359998 0.0099999998 0
-0.25 5 0.011 0
-0.47299999 8.5459995 -0.126 0.12
-0.49900001 8.5310001 -0.125 0.19
-8.4390001 16.483 -0.50999999 0.34999999
-8.474 16.424999 -0.50800002 0.36000001
-21.188999 35.735001 -1.398 0.1
-23.964001 40.120998 -1.598 0
-9.0839996 -2.1559999 -0.156 0.2
-9.0740004 -2.184 -0.156 0.5
-9.4139996 -10.377 -0.336 0.31
-9.3629999 -10.386 -0.33500001 0.54000002
19.76 -27.962999 -1.1160001 0.2
17.423 -24.497 -0.95499998 0.20999999
17.487 -24.263 -0.949 0.23
4.7579999 -4.2280002 -0.041000001 0.25
4.75 -4.1939998 -0.039999999 0.14
4.7839999 -4.198 -0.041000001 0.38999999
4.789 -4.1750002 -0.041000001 0.31999999
4.777 -4.152 -0.039999999 0.090000004
4.4180002 -3.6170001 -0.016000001 0.16
4.4099998 -3.5880001 -0.015 0.1
4.4200001 -3.573 -0.015 0.14
4.4489999 -3.585 -0.016000001 0.079999998
-0.204 5.0110002 -0.018999999 0
-0.219 5.0019999 -0.018999999 0
-0.235 5.0019999 -0.018999999 0.07
-0.47400001 8.5019999 -0.175 0.28999999
-0.50099999 8.5010004 -0.175 0.36000001
-8.3909998 16.503 -0.62 0.14
-8.4399996 16.471001 -0.62 0.55000001
-21.253 36.202999 -1.664 0
-21.135 35.743999 -1.643 0
-25.115999 42.182999 -1.98 0
-9.033 -2.158 -0.20900001 0.25999999
-9.0270004 -2.1719999 -0.20900001 0.30000001
-9.4119997 -10.335 -0.41800001 0.22
-9.3590002 -10.342 -0.417 0.52999997
-9.3479996 -10.395 -0.41800001 0.19
19.757999 -28.016001 -1.321 0.19
17.389 -24.488001 -1.132 0.23999999
17.452 -24.252001 -1.125 0.20999999
4.7140002 -4.1939998 -0.077 0
4.7350001 -4.1859999 -0.078000002 0.090000004
4.744 -4.1669998 -0.077 0
4.7249999 -4.1240001 -0.075000003 0.059999999
4.816 -4.178 -0.079999998 0.07
4.3670001 -3.595 -0.048 0
4.3829999 -3.586 -0.048 0
4.3940001 -3.572 -0.048 0
4.388 -3.5439999 -0.046999998 0.11
-0.197 4.9889998 -0.046999998 0
-0.212 4.98 -0.046999998 0
-0.228 4.9879999 -0.046999998 0.090000004
-0.47400001 8.5109997 -0.22499999 0.27000001
-0.5 8.4840002 -0.223 0.20999999
-8.434 16.455999 -0.72500002 0.50999999
-8.4890003 16.437 -0.72500002 0.18000001
-20.908001 35.866001 -1.881 0.2
-21.336 36.207001 -1.906 0
-21.176001 35.68 -1.88 0
-25.121 42.015999 -2.2539999 0.050000001
-25.278999 41.98 -2.257 0
-25.558001 42.143002 -2.2709999 0
-9.0120001 -2.1429999 -0.26199999 0.16
-9 -2.1700001 -0.26199999 0.12
-13.876 -15.135 -0.82800001 0.51999998
-13.885 -15.24 -0.83200002 0.47999999
-9.3579998 -10.323 -0.49599999 0.34
-9.3210001 -10.348 -0.49599999 0.36000001
19.908001 -28.334999 -1.535 0.27000001
17.405001 -24.448999 -1.303 0.31
4.7249999 -4.1950002 -0.114 0
4.7340002 -4.177 -0.114 0.1
4.7280002 -4.145 -0.112 0
4.7649999 -4.151 -0.114 0
4.3559999 -3.5639999 -0.079000004 0
4.375 -3.556 -0.079999998 0
4.3800001 -3.5380001 -0.079000004 0.050000001
-0.19499999 5.0019999 -0.079999998 0
-0.20900001 4.9629998 -0.078000002 0
-0.472 8.4689999 -0.27700001 0.17
-0.48500001 8.4639997 -0.27599999 0.28
-0.514 8.4919996 -0.278 0.22
-8.4230003 16.441999 -0.84200001 0.23
-8.4200001 16.372 -0.838 0.18000001
-9.75 18.677999 -0.98799998 0.15000001
-20.886999 35.584999 -2.1300001 0
-21.174 35.688999 -2.1429999 0
-22.108999 37 -2.234 0
-9.0120001 -2.168 -0.32100001 0.28999999
-9.026 -2.201 -0.322 0.17
-13.938 -15.14 -0.96100003 0.31999999
-13.908 -15.203 -0.96200001 0.60000002
-9.3590002 -10.308 -0.58399999 0.28
-9.3260002 -10.336 -0.58399999 0.44999999
17.462 -24.35 -1.4910001 0.16
4.6659999 -4.151 -0.15000001 0
4.6700001 -4.1409998 -0.15000001 0
4.6659999 -4.112 -0.149 0
4.684 -4.1009998 -0.149 0
4.7069998 -4.0960002 -0.15000001 0
4.3410001 -3.552 -0.114 0
4.3590002 -3.5550001 -0.115 0
4.3509998 -3.526 -0.114 0
4.3649998 -3.5150001 -0.114 0.07
-0.207 5.0450001 -0.11 0
-0.221 5.0139999 -0.108 0
-0.229 5.0079999 -0.108 0
-0.48899999 8.5299997 -0.32600001 0.28999999
-0.51700002 8.5430002 -0.32699999 0.27000001
-8.3649998 16.643 -0.94999999 0.16
-8.5869999 16.948999 -0.97299999 0.5
-8.4250002 16.503 -0.94400001 0.23999999
-8.4779997 16.478001 -0.94400001 0.27000001
-9.4530001 18.226 -1.067 0.34999999
-9.7489996 18.652 -1.099 0.44999999
-9.9840002 17.030001 -1.018 0
-10.187 17.007 -1.024 0.050000001
-9.0950003 -2.148 -0.375 0.13
-9.0780001 -2.174 -0.375 0.47
-9.1020002 -2.21 -0.377 0.13
-14.039 -15.12 -1.074 0.55000001
-14.038 -15.167 -1.076 0.31
-13.884 -15.095 -1.066 0.60000002
-13.786 -15.083 -1.061 0.43000001
-9.4160004 -10.355 -0.66299999 0.27000001
-9.3830004 -10.384 -0.66299999 0.55000001
-9.3629999 -10.427 -0.66399997 0.20999999
4.7049999 -4.191 -0.18700001 0
4.724 -4.1810002 -0.18799999 0
4.73 -4.1599998 -0.18700001 0
4.7579999 -4.158 -0.18799999 0
4.777 -4.1479998 -0.189 0.07
4.3759999 -3.592 -0.148 0
4.388 -3.5780001 -0.148 0
4.4099998 -3.573 -0.149 0.039999999
-0.20299999 5.0149999 -0.14300001 0
-0.219 5.0120001 -0.14300001 0
-0.235 5.0110002 -0.14300001 0.050000001
-0.47400001 8.4969997 -0.38299999 0.18000001
-0.5 8.4879999 -0.38299999 0.31999999
-0.528 8.5159998 -0.38499999 0.16
-7.9640002 15.973 -1.026 0.38999999
-8.1829996 16.285999 -1.052 0.36000001
-8.4490004 16.686001 -1.085 0.55000001
-8.6070004 16.934 -1.105 0.25
-8.441 16.476999 -1.072 0.44999999
-9.349 18.114 -1.2 0.2
-9.5979996 18.455 -1.229 0.31999999
-9.0539999 -2.1630001 -0.43799999 0.18000001
-9.0579996 -2.1789999 -0.43900001 0.25
-14.172 -15.106 -1.223 0.2
-14.057 -15.078 -1.216 0.33000001
-13.846 -14.947 -1.2 0.44999999
-13.809 -14.954 -1.198 0.34
-13.755 -14.99 -1.198 0.46000001
-9.3999996 -10.321 -0.75800002 0.20999999
-9.3570004 -10.338 -0.75700003 0.47999999
-9.3319998 -10.376 -0.75800002 0.31
4.7189999 -4.1849999 -0.23199999 0
4.7290001 -4.1810002 -0.23199999 0.12
4.723 -4.1490002 -0.23 0
4.7550001 -4.151 -0.23199999 0
4.7639999 -4.132 -0.23199999 0.07
4.3670001 -3.5840001 -0.18700001 0.16
4.3629999 -3.5699999 -0.186 0.20999999
4.3990002 -3.576 -0.18799999 0
4.3990002 -3.5539999 -0.18700001 0.14
-0.199 5.059 -0.171 0
-0.215 5.0650001 -0.17200001 0
-0.23100001 5.0599999 -0.17200001 0
-0.24699999 5.053 -0.171 0.07
-0.477 8.5740004 -0.43099999 0.18000001
-0.50400001 8.5629997 -0.43000001 0.44
-0.53100002 8.5629997 -0.43099999 0.31999999
-7.7579999 15.688 -1.0880001 0.38
-7.9790001 16.006001 -1.1160001 0.47999999
-8.2259998 16.371 -1.149 0.31999999
-8.4849997 16.754 -1.182 0.52999997
-8.6660004 16.976999 -1.2029999 0.23
-8.4680004 16.527 -1.1670001 0.51999998
-9.4219999 18.242001 -1.311 0.20999999
-9.0970001 -2.177 -0.48800001 0.25
-9.1049995 -2.194 -0.48800001 0.47999999
-14.128 -14.975 -1.316 0.15000001
-13.942 -14.87 -1.301 0.38999999
-13.896 -14.916 -1.301 0.27000001
-13.853 -14.964 -1.301 0.62
-13.923 -15.087 -1.311 0.27000001
-13.803 -15.051 -1.303 0.44999999
-9.4779997 -10.389 -0.83499998 0.13
-9.4300003 -10.401 -0.833 0.34
-9.3859997 -10.418 -0.83200002 0.46000001
4.7789998 -4.244 -0.26899999 0.11
4.79 -4.2259998 -0.26899999 0.11
4.8150001 -4.2220001 -0.27000001 0
4.8039999 -4.1859999 -0.26800001 0.11
4.4429998 -3.658 -0.222 0.11
4.4330001 -3.6270001 -0.22 0.20999999
4.4460001 -3.6140001 -0.22 0.18000001
4.4520001 -3.5969999 -0.22 0.090000004
-0.20299999 5.0419998 -0.204 0
-0.20900001 5.006 -0.20100001 0
-0.22499999 5.013 -0.20100001 0
-0.51099998 8.4940004 -0.48100001 0.16
-7.8319998 15.786 -1.2130001 0.30000001
-8.059 16.115999 -1.245 0.36000001
-8.3050003 16.481001 -1.28 0.34999999
-8.5880003 16.91 -1.321 0.51999998
-8.4399996 16.489 -1.285 0.25
-8.4560003 16.458 -1.283 0.27000001
-9.4490004 18.254 -1.448 0.28999999
-9.0159998 -2.1659999 -0.54299998 0
-9.0229998 -2.197 -0.54400003 0.11
-10.524 -11.184 -1.031 0.38999999
-10.482 -11.21 -1.03 0.46000001
-10.396 -11.189 -1.024 0.31999999
-10.395 -11.258 -1.028 0.56
-10.349 -11.279 -1.027 0.30000001
-10.248 -11.204 -1.017 0.14
-9.3900003 -10.335 -0.91900003 0.25999999
-9.3620005 -10.369 -0.92000002 0.49000001
-9.3400002 -10.41 -0.921 0.36000001
-10.146 -11.377 -1.022 0.19
4.6859999 -4.1719999 -0.30199999 0
4.704 -4.1609998 -0.303 0
4.7059999 -4.1500001 -0.30199999 0
4.6939998 -4.1129999 -0.29899999 0
4.717 -4.1069999 -0.30000001 0
4.3720002 -3.5799999 -0.252 0
4.375 -3.5599999 -0.25099999 0
4.3759999 -3.549 -0.25099999 0
4.3860002 -3.5339999 -0.25099999 0.059999999
-0.204 5.0310001 -0.23199999 0
-0.219 5.0170002 -0.23100001 0
-0.233 4.9959998 -0.229 0.1
-7.802 15.733 -1.309 0.40000001
-8.0439997 16.093 -1.346 0.38
-8.2919998 16.457001 -1.383 0.38999999
-8.566 16.868 -1.425 0.44999999
-8.4899998 16.589001 -1.401 0.2
-8.4820004 16.447001 -1.39 0.52999997
-9.5089998 18.361 -1.577 0.22
-9.0530005 -2.177 -0.59899998 0.28999999
-9.0389996 -2.204 -0.59899998 0.2
-10.393 -11.031 -1.102 0.37
-10.368 -11.074 -1.103 0.30000001
-10.354 -11.128 -1.1059999 0.34999999
-10.327 -11.169 -1.107 0.28
-10.286 -11.196 -1.1059999 0.31999999
-9.8549995 -10.793 -1.0549999 0.44
-9.5749998 -10.518 -1.022 0.2
-9.3669996 -10.354 -0.99900001 0.40000001
-9.342 -10.392 -1 0.18000001
-9.6000004 -10.748 -1.038 0.49000001
-9.5780001 -10.791 -1.039 0.61000001
-9.5469999 -10.824 -1.04 0.62
-9.5310001 -10.841 -1.04 0.62
4.75 -4.2090001 -0.34400001 0.090000004
4.7610002 -4.1659999 -0.34299999 0.28999999
4.7800002 -4.1560001 -0.34299999 0.22
4.4000001 -3.615 -0.28799999 0
4.3940001 -3.5880001 -0.287 0.14
4.4039998 -3.573 -0.28600001 0.12
4.4229999 -3.5650001 -0.287 0.12
13.342 -10.314 -1.249 0.27000001
-0.191 4.9920001 -0.25799999 0
-0.206 4.9749999 -0.257 0
-0.221 4.9590001 -0.255 0
-7.9390001 15.958 -1.437 0.36000001
-8.1680002 16.291 -1.474 0.23999999
-8.4350004 16.694 -1.518 0.34999999
-8.6739998 17.035 -1.556 0.25
-8.4440002 16.452 -1.499 0.36000001
-8.4960003 16.426001 -1.499 0.25
-9.026 -2.178 -0.653 0.28999999
-9.0059996 -2.2030001 -0.65100002 0.30000001
-10.365 -11.04 -1.191 0.23
-10.183 -10.984 -1.176 0.56
-10.155 -11.023 -1.177 0.31999999
-10.116 -11.05 -1.176 0.34
-9.7279997 -10.695 -1.128 0.25
-9.3500004 -10.313 -1.0779999 0.23999999
-9.3249998 -10.351 -1.08 0.2
-9.5380001 -10.653 -1.113 0.20999999
-9.5489998 -10.733 -1.119 0.38
-9.5170002 -10.765 -1.12 0.44999999
-9.4969997 -10.811 -1.122 0.34
-9.4510002 -10.827 -1.12 0.15000001
-9.434 -10.842 -1.12 0.14
-9.3850002 -10.854 -1.118 0
4.6989999 -4.1479998 -0.375 0
4.7020001 -4.1240001 -0.37400001 0
4.7220001 -4.1290002 -0.37599999 0
5.9070001 -5.0760002 -0.51499999 0
4.362 -3.586 -0.31799999 0
4.3730001 -3.573 -0.31799999 0
4.3769999 -3.553 -0.317 0
4.3909998 -3.553 -0.31799999 0
4.7839999 -3.7509999 -0.35800001 0
4.7789998 -3.7219999 -0.35600001 0
4.7729998 -3.7060001 -0.35499999 0
4.7740002 -3.6830001 -0.35299999 0
4.8010001 -3.6800001 -0.35499999 0
4.7919998 -3.6489999 -0.35299999 0
4.7940001 -3.6270001 -0.352 0
4.7989998 -3.6070001 -0.35100001 0
-0.19599999 4.9650002 -0.28799999 0
-0.211 4.9619999 -0.287 0
-0.229 5.006 -0.292 0.050000001
-7.882 15.87 -1.54 0.40000001
-8.1129999 16.271 -1.586 0.31
-8.3599997 16.632999 -1.628 0.34999999
-8.6409998 17.056999 -1.678 0.33000001
-8.3929996 16.441 -1.613 0.38
-8.4440002 16.413 -1.613 0.40000001
-9.0360003 -2.1329999 -0.71200001 0.98000002
-9.0170002 -2.1589999 -0.70999998 0.99000001
-9.2620001 -2.2490001 -0.736 0.77999997
-9.1960001 -9.9219999 -1.128 0.43000001
-9.1210003 -9.9040003 -1.122 0.55000001
-9.0930004 -9.9350004 -1.123 0.63
-9.0620003 -9.9639997 -1.123 0.62
-9.0319996 -9.9940004 -1.123 0.61000001
-9.0310001 -10.024 -1.125 0.62
-9.0030003 -10.057 -1.126 0.57999998
-8.9619999 -10.075 -1.124 0.56
-8.8999996 -10.068 -1.12 0.58999997
4.6750002 -4.164 -0.41499999 0.13
4.7059999 -4.165 -0.417 0.12
4.6880002 -4.1230001 -0.41299999 0
4.704 -4.1110001 -0.41299999 0
4.7309999 -4.1220002 -0.41600001 0.13
5.5970001 -4.8390002 -0.52600002 0.12
5.6199999 -4.8280001 -0.52700001 0.28
5.665 -4.6700001 -0.52100003 0
4.336 -3.559 -0.35100001 0
4.3470001 -3.546 -0.35100001 0
4.3649998 -3.5369999 -0.35100001 0
4.3979998 -3.552 -0.35499999 0.039999999
4.7270002 -3.7909999 -0.39500001 0.17
4.7059999 -3.7509999 -0.391 0.25999999
4.7150002 -3.733 -0.38999999 0.2
4.7030001 -3.7 -0.38699999 0.41
4.7259998 -3.694 -0.389 0.19
4.698 -3.6489999 -0.384 0.38
4.71 -3.6459999 -0.38499999 0.19
4.704 -3.618 -0.38299999 0.34
4.7329998 -3.6159999 -0.38499999 0.2
-0.20200001 4.9699998 -0.31900001 0.14
-0.21699999 4.973 -0.31900001 0.1
-0.234 4.9899998 -0.32100001 0.15000001
-0.241 4.9879999 -0.32100001 0.07
-8.0170002 16.082001 -1.675 0.38999999
-8.2449999 16.476999 -1.723 0.43000001
-8.4989996 16.853001 -1.77 0.44999999
-8.4560003 16.636 -1.748 0.19
-8.415 16.427 -1.726 0.5
-8.4709997 16.409 -1.727 0.15000001
-9.0340004 -2.1429999 -0.76899999 0.99000001
-8.9289999 -2.148 -0.75800002 0.93000001
-9.0690002 -2.211 -0.77399999 0.50999999
-8.9639997 -9.6289997 -1.173 0.25
-8.8579998 -9.5450001 -1.159 0.51999998
-8.7220001 -9.4580002 -1.143 0.34
-8.6960001 -9.4890003 -1.143 0.28
-8.5790005 -9.4209995 -1.13 0.62
-8.4469995 -9.3360004 -1.114 0.20999999
-8.4549999 -9.4040003 -1.12 0.63999999
-8.4390001 -9.4160004 -1.12 0.70999998
-8.4160004 -9.4499998 -1.1210001 0.68000001
-8.3979998 -9.4899998 -1.122 0.68000001
4.6939998 -4.1760001 -0.456 0.22
4.6939998 -4.1500001 -0.454 0.22
4.704 -4.132 -0.45300001 0.38
4.7270002 -4.1269999 -0.45500001 0.25999999
4.7480001 -4.118 -0.456 0.13
5.4450002 -4.698 -0.55000001 0.25
5.4689999 -4.704 -0.55299997 0.34
4.348 -3.5810001 -0.38800001 0.2
4.3410001 -3.552 -0.38499999 0.16
4.3410001 -3.529 -0.384 0.16
4.3850002 -3.5420001 -0.38800001 0.16
4.6269999 -3.7160001 -0.419 0.16
4.6830001 -3.7360001 -0.42500001 0.31999999
4.6900001 -3.73 -0.42500001 0.38
4.6799998 -3.698 -0.42199999 0.27000001
4.677 -3.6719999 -0.421 0.41
4.6919999 -3.6600001 -0.421 0.27000001
4.691 -3.6359999 -0.419 0.36000001
-0.20999999 4.9809999 -0.35299999 0
-0.21799999 4.9920001 -0.354 0
-0.234 4.9949999 -0.35499999 0.029999999
-7.796 15.774 -1.752 0.34
-7.921 15.901 -1.77 0.27000001
-8.1049995 16.142 -1.804 0.34999999
-8.3649998 16.593 -1.8609999 0.37
-8.5670004 16.860001 -1.898 0.22
-8.4390001 16.481001 -1.854 0.38999999
-8.8459997 17.011 -1.927 0.41999999
-9.0900002 -2.158 -0.83600003 0.93000001
-8.9790001 -2.161 -0.824 0.99000001
-9.1149998 -2.224 -0.84100002 0.63999999
-8.9899998 -9.6610003 -1.2640001 0.44
-8.8669996 -9.5880003 -1.249 0.31999999
-8.7290001 -9.4989996 -1.2309999 0.25
-8.6420002 -9.4630003 -1.222 0.16
-8.5089998 -9.3760004 -1.205 0.56
-8.3839998 -9.2969999 -1.189 0.33000001
-8.2930002 -9.224 -1.176 0.34
-8.191 -9.1680002 -1.164 0.37
-8.0620003 -9.0810003 -1.147 0.31
-7.9590001 -9.0209999 -1.1339999 0.33000001
4.7550001 -4.2249999 -0.50599998 0
4.7459998 -4.1900001 -0.50199997 0
4.763 -4.1789999 -0.50300002 0
4.7800002 -4.1669998 -0.50300002 0
4.8099999 -4.1799998 -0.50700003 0
4.54 -3.74 -0.45300001 0
4.3920002 -3.596 -0.43000001 0
4.421 -3.596 -0.43200001 0
4.4260001 -3.5769999 -0.43099999 0
4.4829998 -3.6110001 -0.43900001 0
4.723 -3.779 -0.47099999 0.079999998
4.7490001 -3.7750001 -0.47299999 0.16
4.7319999 -3.7379999 -0.46900001 0.28
4.7659998 -3.6559999 -0.46599999 0
-0.192 5.0100002 -0.38699999 0
-0.207 4.9860001 -0.38499999 0
-0.223 4.9970002 -0.38600001 0
-0.23899999 5.0120001 -0.38800001 0.050000001
-7.8860002 15.783 -1.8660001 0.51999998
-8.04 15.966 -1.893 0.43000001
-8.1289997 16.080999 -1.91 0.30000001
-8.1890001 16.075001 -1.9119999 0.23999999
-8.2460003 16.062 -1.914 0.47
-8.3030005 16.048 -1.915 0.30000001
-8.3710003 16.055 -1.92 0.31999999
-9.0760002 -2.1459999 -0.89200002 0.27000001
-8.9899998 -2.1559999 -0.88300002 0.99000001
-9.1820002 -2.217 -0.90600002 0.66000003
-8.9820004 -9.665 -1.345 0.31
-8.8940001 -9.6000004 -1.332 0.18000001
-8.7700005 -9.5270004 -1.316 0.56999999
-8.6090002 -9.4119997 -1.293 0.37
-8.507 -9.3590002 -1.281 0.41
-8.3760004 -9.2740002 -1.263 0.33000001
-8.2709999 -9.2159996 -1.25 0.38999999
-8.1680002 -9.1590004 -1.237 0.36000001
-8.0530005 -9.0600004 -1.219 0.30000001
-7.947 -8.9969997 -1.205 0.31
4.8119998 -4.2880001 -0.55500001 0
4.7049999 -4.1789999 -0.537 0.12
4.7210002 -4.1669998 -0.53799999 0.23
4.7210002 -4.1399999 -0.53500003 0
4.7399998 -4.1300001 -0.53600001 0
4.789 -4.1469998 -0.542 0.07
5.1389999 -4.4250002 -0.59399998 0.2
5.118 -4.3920002 -0.58999997 0.2
5.1100001 -4.3579998 -0.58700001 0.38
5.1420002 -4.3569999 -0.58899999 0.20999999
5.0830002 -4.2789998 -0.57800001 0.34
5.059 -4.2309999 -0.57200003 0.20999999
5.0110002 -4.164 -0.56300002 0
4.9650002 -4.099 -0.55400002 0
4.3779998 -3.599 -0.46399999 0
4.3889999 -3.585 -0.46399999 0
4.4070001 -3.576 -0.465 0
4.4390001 -3.5799999 -0.46799999 0.079999998
4.7249999 -3.789 -0.509 0.27000001
4.7030001 -3.7460001 -0.50400001 0.19
4.7010002 -3.72 -0.50199997 0.27000001
4.6929998 -3.7019999 -0.5 0.20999999
4.6799998 -3.6440001 -0.495 0.38
4.6820002 -3.622 -0.493 0.23
-0.192 5.1230001 -0.43000001 0
-0.205 5.0650001 -0.42300001 0.079999998
-0.221 5.066 -0.42300001 0.16
-0.227 5.0279999 -0.419 0.12
-7.7049999 15.235 -1.897 0.34
-9.1269999 -2.1500001 -0.95200002 0.16
-9.0059996 -2.151 -0.93800002 0.99000001
-9.2189999 -2.234 -0.96499997 0.74000001
-9.6789999 -10.337 -1.539 0.23
-9.6429996 -10.362 -1.539 0.55000001
-9.4969997 -10.238 -1.515 0.30000001
-9.0679998 -9.835 -1.443 0.38
-8.7309999 -9.5290003 -1.387 0.38
-8.6129999 -9.4589996 -1.3710001 0.20999999
-8.4919996 -9.3839998 -1.355 0.50999999
-8.3629999 -9.3000002 -1.336 0.36000001
-8.2609997 -9.2449999 -1.323 0.25999999
-8.1739998 -9.1759996 -1.309 0.51999998
-8.0539999 -9.0970001 -1.2920001 0.31999999
-7.9260001 -9.0089998 -1.274 0.38999999
4.7529998 -4.211 -0.57999998 0.17
4.7610002 -4.1919999 -0.57999998 0.2
4.7729998 -4.1750002 -0.579 0.31999999
4.789 -4.1630001 -0.57999998 0.14
4.8150001 -4.1719999 -0.583 0.12
5.0190001 -4.3200002 -0.61400002 0.23999999
5.0190001 -4.2919998 -0.611 0.33000001
5.0209999 -4.2680001 -0.61000001 0.36000001
5.0100002 -4.2309999 -0.60600001 0.25999999
4.9959998 -4.1929998 -0.602 0.38999999
4.9829998 -4.1680002 -0.59799999 0.31999999
4.961 -4.1240001 -0.59299999 0.28
4.9879999 -4.119 -0.59500003 0.33000001
4.448 -3.654 -0.50700003 0.20999999
4.4099998 -3.5999999 -0.5 0.17
4.441 -3.602 -0.50300002 0.25999999
4.4489999 -3.586 -0.50199997 0.18000001
4.4889998 -3.6059999 -0.50800002 0.1
4.7220001 -3.767 -0.542 0.33000001
4.7350001 -3.753 -0.54299998 0.25999999
-0.18700001 4.9619999 -0.43599999 0
-0.19400001 4.9549999 -0.435 0
-0.20999999 4.9530001 -0.435 0
-0.22499999 4.9419999 -0.43399999 0.079999998
-9.0270004 -2.1429999 -0.98699999 0.15000001
-9.0430002 -2.177 -0.991 0.88999999
-9.0109997 -2.2 -0.98699999 0.69999999
-11.011 -11.787 -1.864 0.28
-10.743 -11.573 -1.8200001 0.40000001
-9.0369997 -9.8030005 -1.506 0.34
-10.694 -11.63 -1.821 0.28
-10.538 -11.533 -1.799 0.17
-8.9700003 -9.8859997 -1.508 0.41
-9.1149998 -10.108 -1.5420001 0.31999999
-8.25 -9.21 -1.382 0.23999999
-8.1379995 -9.1429996 -1.3660001 0.47999999
-8.0039997 -9.0500002 -1.346 0.36000001
-7.9169998 -8.9809999 -1.332 0.37
4.763 -4.2360001 -0.616 0.059999999
4.6950002 -4.1620002 -0.60299999 0.15000001
4.6960001 -4.1370001 -0.60100001 0.28999999
4.7259998 -4.1370001 -0.60399997 0
4.7189999 -4.105 -0.60100001 0
4.7880001 -4.138 -0.61000001 0.1
4.9749999 -4.2740002 -0.63999999 0.23999999
4.9520001 -4.2270002 -0.634 0.34999999
4.9369998 -4.2010002 -0.63 0.33000001
4.8779998 -4.1240001 -0.61799997 0.27000001
4.8559999 -4.079 -0.61199999 0.30000001
4.8429999 -4.0419998 -0.60799998 0.30000001
4.698 -3.8940001 -0.58099997 0
4.6669998 -3.8440001 -0.574 0
4.349 -3.5569999 -0.51899999 0
4.3369999 -3.536 -0.51700002 0
4.355 -3.527 -0.51800001 0
4.3979998 -3.54 -0.523 0.039999999
4.7010002 -3.7609999 -0.57099998 0.18000001
4.7080002 -3.743 -0.56999999 0.17
4.6370001 -3.6500001 -0.55599999 0.25
-0.213 5.0689998 -0.48500001 0
-0.228 5.04 -0.48199999 0
-0.23800001 5.079 -0.48699999 0.07
-9.1110001 -2.161 -1.064 0.2
-9.1090002 -2.1900001 -1.064 0.46000001
-10.425 -11.24 -1.868 0.40000001
-9.1169996 -9.8549995 -1.6109999 0.28999999
-9.1040001 -9.9040003 -1.615 0.25999999
-9.3529997 -10.241 -1.671 0.14
-9.4180002 -10.377 -1.691 0.38
-9.3920002 -10.414 -1.692 0.41999999
-10.138 -11.316 -1.85 0.16
-8.9989996 -10.104 -1.626 0.47999999
-10.098 -11.379 -1.853 0.28999999
-10.005 -11.345 -1.841 0.38999999
-9.9139996 -11.314 -1.83 0.25999999
4.7649999 -4.2350001 -0.66100001 0.14
4.7649999 -4.2090001 -0.65799999 0.28999999
4.7820001 -4.198 -0.65899998 0.25
4.7810001 -4.1700001 -0.65700001 0.12
4.822 -4.1789999 -0.662 0.19
5 -4.3189998 -0.69199997 0.19
5 -4.2909999 -0.69 0.31
4.9499998 -4.2220001 -0.67900002 0.27000001
4.888 -4.1420002 -0.66500002 0.28
4.855 -4.0890002 -0.65700001 0.28
4.8470001 -4.0560002 -0.653 0.25
4.8379998 -4.0229998 -0.64999998 0.30000001
4.7740002 -3.9579999 -0.63700002 0
4.4819999 -3.694 -0.58399999 0
4.4169998 -3.618 -0.57099998 0
4.4159999 -3.5940001 -0.56900001 0
4.4239998 -3.5780001 -0.56800002 0
4.7309999 -3.7750001 -0.61699998 0.23
4.7210002 -3.7550001 -0.61500001 0.28999999
4.7160001 -3.727 -0.61199999 0.25999999
-0.193 5.0349998 -0.51499999 0
-0.207 5.0029998 -0.51099998 0
-0.22400001 5.0120001 -0.51200002 0
-0.23899999 5.0110002 -0.51200002 0.039999999
-9.0500002 -2.1700001 -1.119 0.1
-9.0480003 -2.1849999 -1.119 0.19
-9.8070002 -10.617 -1.848 0.30000001
-9.5889997 -10.414 -1.806 0.14
-9.7390003 -10.644 -1.844 0.30000001
-9.3900003 -10.328 -1.778 0.14
-9.3450003 -10.344 -1.775 0.27000001
-9.3509998 -10.416 -1.783 0.18000001
-8.993 -10.082 -1.714 0.28
-9.5620003 -10.785 -1.842 0.17
-9.566 -10.824 -1.847 0.2
-9.3789997 -10.68 -1.814 0.46000001
-9.4519997 -10.831 -1.837 0.17
-9.2399998 -10.656 -1.798 0.38
4.7810001 -4.2870002 -0.71100003 0
4.756 -4.237 -0.70300001 0
4.7259998 -4.184 -0.69499999 0
4.7340002 -4.178 -0.69599998 0
4.7470002 -4.1630001 -0.69599998 0
4.7490001 -4.138 -0.69300002 0
4.9790001 -4.2849998 -0.73199999 0.11
4.8189998 -4.1199999 -0.699 0.17
4.7820001 -4.0619998 -0.69 0.30000001
4.7779999 -4.046 -0.68800002 0.25999999
4.711 -3.9630001 -0.67299998 0.25
4.6820002 -3.9130001 -0.66600001 0.19
4.6789999 -3.8859999 -0.66299999 0
4.5159998 -3.7249999 -0.63099998 0
4.3860002 -3.5940001 -0.60399997 0
4.395 -3.5899999 -0.60500002 0
4.4109998 -3.579 -0.60600001 0
4.5079999 -3.6359999 -0.62199998 0.07
4.6240001 -3.7060001 -0.64099997 0.1
4.6199999 -3.6789999 -0.63800001 0.14
4.6259999 -3.6600001 -0.63700002 0.12
-0.20299999 5.0970001 -0.54699999 0.07
-0.22 5.1160002 -0.55000001 0.14
-0.233 5.0619998 -0.542 0.1
-9.1020002 -2.1819999 -1.169 0.23999999
-9.085 -2.1930001 -1.1670001 0.31999999
-9.5450001 -10.305 -1.854 0.46000001
-9.5459995 -10.404 -1.864 0.38999999
-9.467 -10.382 -1.854 0.16
-9.3540001 -10.324 -1.837 0.20999999
-9.3330002 -10.365 -1.839 0.50999999
-9.342 -10.442 -1.848 0.34999999
-8.9899998 -10.111 -1.778 0.46000001
-9.3319998 -10.53 -1.857 0.31
-9.2950001 -10.555 -1.8559999 0.31999999
-9.2539997 -10.575 -1.854 0.31
-9.2130003 -10.595 -1.853 0.30000001
-9.1859999 -10.631 -1.854 0.47999999
4.7659998 -4.2290001 -0.73299998 0.16
4.7789998 -4.2140002 -0.73299998 0.23
4.7820001 -4.1900001 -0.73100001 0.25999999
4.803 -4.1820002 -0.73199999 0
4.8080001 -4.1599998 -0.73100001 0.13
4.9580002 -4.2620001 -0.75700003 0.18000001
4.9710002 -4.2589998 -0.75800002 0.33000001
4.842 -4.1230001 -0.73100001 0.31
4.7810001 -4.046 -0.71700001 0.28999999
4.7399998 -3.9860001 -0.70700002 0.28999999
4.7179999 -3.9430001 -0.69999999 0.31
4.671 -3.8789999 -0.68900001 0.23999999
4.7010002 -3.891 -0.69300002 0.31999999
4.454 -3.665 -0.64399999 0.23
4.461 -3.6470001 -0.64399999 0.2
4.448 -3.6140001 -0.639 0.20999999
4.4650002 -3.605 -0.63999999 0.12
4.5229998 -3.6270001 -0.64899999 0.12
4.6560001 -3.7090001 -0.671 0.28999999
4.6500001 -3.6930001 -0.66900003 0.28
4.6620002 -3.678 -0.66900003 0.28
4.6739998 -3.664 -0.66900003 0.28999999
-0.204 5.0419998 -0.57499999 0.11
-0.212 5.0500002 -0.57700002 0.13
-0.228 5.0469999 -0.57599998 0.15000001
-0.58099997 12.015 -1.645 0.33000001
-9.0950003 -2.1860001 -1.235 0.5
-9.0649996 -2.2090001 -1.232 0.25
4.7709999 -4.2459998 -0.78100002 0.22
4.744 -4.1960001 -0.773 0.18000001
4.743 -4.1820002 -0.77100003 0.22
4.711 -4.1259999 -0.76200002 0.55000001
4.7859998 -4.1659999 -0.77399999 0.25
4.9790001 -4.2810001 -0.80800003 0.46000001
4.8449998 -4.138 -0.778 0.34
4.6950002 -3.983 -0.74599999 0.31
4.6799998 -3.9579999 -0.741 0.31999999
4.6230001 -3.885 -0.727 0.36000001
4.6570001 -3.888 -0.73199999 0.25
4.6240001 -3.835 -0.72299999 0.44999999
4.487 -3.697 -0.69300002 0.37
4.4159999 -3.615 -0.67699999 0.22
4.4099998 -3.5869999 -0.67299998 0.20999999
4.4419999 -3.6010001 -0.67799997 0.38999999
4.4530001 -3.5869999 -0.67799997 0.15000001
4.5739999 -3.6619999 -0.69999999 0.31999999
4.8460002 -3.8559999 -0.75099999 0.34
4.6290002 -3.6589999 -0.70599997 0.34
-0.20900001 5.0040002 -0.67000002 0.31999999
-0.22400001 4.9949999 -0.66799998 0.25
-0.23999999 5.0079999 -0.671 0.46000001
-0.25600001 5.0139999 -0.67199999 0.34999999
-9.0430002 -2.1570001 -1.351 0.12
-9.0550003 -2.1900001 -1.354 0.33000001
-9.0600004 -2.221 -1.3559999 0.40000001
4.9029999 -4.3740001 -0.91799998 0.67000002
4.8270001 -4.2789998 -0.89899999 0.34999999
4.7459998 -4.1820002 -0.87900001 0.38999999
4.7620001 -4.1820002 -0.88099998 0.28
4.7620001 -4.1550002 -0.87800002 0.47999999
4.7639999 -4.131 -0.87599999 0.55000001
4.8060002 -4.1409998 -0.88200003 0.2
5.1389999 -4.3979998 -0.949 0.41
5.1199999 -4.3540001 -0.94199997 0.30000001
4.6750002 -3.9660001 -0.84799999 0.41
4.6199999 -3.895 -0.83399999 0.38999999
4.744 -3.973 -0.85699999 0.38999999
4.631 -3.855 -0.83099997 0.38999999
4.6719999 -3.8640001 -0.83700001 0.44
4.585 -3.7679999 -0.81699997 0.5
4.408 -3.6010001 -0.778 0.40000001
4.3959999 -3.5799999 -0.77499998 0.30000001
4.4060001 -3.5650001 -0.77499998 0.5
4.427 -3.559 -0.77600002 0.34
4.5419998 -3.6270001 -0.79699999 0.34999999
-0.198 5.02 -0.722 0.25
-0.214 5.0120001 -0.72100002 0.33000001
-0.23 5.0190001 -0.722 0.47
-0.24600001 5.0180001 -0.722 0.31
-9.0190001 -2.1600001 -1.439 0.27000001
-8.9069996 -2.1630001 -1.421 0.18000001
4.8309999 -4.3070002 -0.96600002 0.34
4.7340002 -4.1939998 -0.94099998 0.34999999
4.737 -4.1690001 -0.93900001 0.19
4.75 -4.1550002 -0.93900001 0.55000001
4.7740002 -4.1500001 -0.94199997 0.5
4.777 -4.1389999 -0.94099998 0.2
5.277 -4.546 -1.049 0.23
5.1950002 -4.447 -1.028 0.5
4.6789999 -3.977 -0.91000003 0.34999999
4.6059999 -3.8889999 -0.89099997 0.34999999
4.5869999 -3.848 -0.884 0.44999999
4.599 -3.8329999 -0.884 0.30000001
4.5869999 -3.8110001 -0.88 0.56
4.5440001 -3.7509999 -0.86799997 0.37
4.3889999 -3.598 -0.83200002 0.31999999
4.4000001 -3.585 -0.83200002 0.40000001
4.414 -3.573 -0.83200002 0.41
4.4359999 -3.5680001 -0.83499998 0.25
4.6500001 -3.7179999 -0.87900001 0.31999999
4.6079998 -3.6719999 -0.86799997 0.47
4.5900002 -3.6340001 -0.86199999 0.34999999
-0.2 5.0180001 -0.76599997 0.18000001
-0.208 5.0139999 -0.76499999 0.31999999
-0.223 5.0110002 -0.76499999 0.40000001
-0.23899999 5.0110002 -0.76499999 0.34999999
-9.0279999 -2.1800001 -1.523 0.31
-9.0550003 -2.217 -1.529 0.46000001
4.9180002 -4.3889999 -1.045 0.64999998
4.8829999 -4.3309999 -1.033 0.46000001
4.7540002 -4.191 -1 0.37
4.7579999 -4.1810002 -0.99900001 0.25999999
4.777 -4.171 -1 0.43000001
4.7839999 -4.151 -0.99900001 0.55000001
4.79 -4.1290002 -0.99699998 0.25999999
5.0100002 -4.29 -1.045 0.23999999
5.1209998 -4.3569999 -1.068 0.41999999
4.7410002 -4.0110002 -0.977 0.25
4.6259999 -3.902 -0.949 0.49000001
4.6279998 -3.8789999 -0.94599998 0.33000001
4.6110001 -3.8399999 -0.94 0.49000001
4.6090002 -3.8150001 -0.93699998 0.28999999
4.5910001 -3.7750001 -0.93000001 0.56
4.414 -3.608 -0.88700002 0.34
4.4070001 -3.5799999 -0.88300002 0.31999999
4.4190001 -3.5780001 -0.884 0.46000001
4.4239998 -3.559 -0.88300002 0.37
4.553 -3.638 -0.90899998 0.19
4.5830002 -3.638 -0.91299999 0.51999998
4.6030002 -3.631 -0.91500002 0.33000001
-0.20200001 5.0110002 -0.80199999 0.23
-0.21699999 4.9959998 -0.79900002 0.20999999
-0.234 5.0149999 -0.80299997 0.15000001
-0.25600001 5.1599998 -0.82999998 0.17
-9.026 -2.1689999 -1.591 0.17
-9.0360003 -2.201 -1.594 0
4.7509999 -4.2020001 -1.0470001 0.25
4.7270002 -4.1539998 -1.038 0.25999999
4.7329998 -4.1329999 -1.036 0.34999999
4.7470002 -4.119 -1.0369999 0.30000001
4.77 -4.1259999 -1.041 0.30000001
4.9429998 -4.25 -1.08 0.18000001
4.9720001 -4.2480001 -1.084 0.31999999
4.8150001 -4.086 -1.0420001 0.23
4.6300001 -3.9030001 -0.99400002 0.27000001
4.585 -3.8399999 -0.98100001 0.41999999
4.5819998 -3.813 -0.977 0.38
4.5640001 -3.786 -0.97100002 0.33000001
4.5450001 -3.7460001 -0.96399999 0.47999999
4.4130001 -3.6129999 -0.92900002 0.31999999
4.382 -3.5639999 -0.91900003 0.28999999
4.4000001 -3.556 -0.921 0.38
4.4180002 -3.5469999 -0.92199999 0.2
4.5300002 -3.6270001 -0.94800001 0.22
4.5679998 -3.6340001 -0.954 0.46000001
4.6020002 -3.638 -0.95899999 0.38999999
4.631 -3.6370001 -0.963 0.34
-0.206 5.0139999 -0.847 0.039999999
-0.222 5.0139999 -0.847 0.15000001
-0.237 5.0050001 -0.84600002 0
-0.255 5.053 -0.85500002 0.1
-9.1370001 -2.1730001 -1.694 0.13
-9.0550003 -2.184 -1.679 0
-9.4809999 -2.303 -1.765 0.11
4.7210002 -4.191 -1.098 0.23999999
4.7259998 -4.1700001 -1.096 0.22
4.7319999 -4.1609998 -1.095 0.2
4.7519999 -4.152 -1.097 0.14
4.777 -4.1479998 -1.1 0.090000004
4.9809999 -4.296 -1.149 0.15000001
4.9109998 -4.2090001 -1.128 0.25
4.7350001 -4.0339999 -1.08 0.23
4.619 -3.924 -1.049 0.25999999
4.5549998 -3.845 -1.03 0.28999999
4.5700002 -3.8340001 -1.03 0.38999999
4.5580001 -3.799 -1.024 0.23
4.5409999 -3.7609999 -1.017 0.16
4.4200001 -3.6389999 -0.98400003 0.2
4.375 -3.579 -0.97000003 0.16
4.3920002 -3.5810001 -0.97299999 0.14
4.4089999 -3.572 -0.97399998 0.2
4.4910002 -3.615 -0.99199998 0.17
4.5100002 -3.6070001 -0.99400002 0.30000001
4.5209999 -3.592 -0.99400002 0.34999999
4.5320001 -3.5780001 -0.99400002 0.31999999
4.5409999 -3.573 -0.99400002 0.40000001
-0.19400001 4.9990001 -0.903 0.25999999
-0.20900001 4.9790001 -0.89899999 0.23999999
-0.22499999 5.0019999 -0.90399998 0.44
-0.233 5.0110002 -0.90600002 0.20999999
-9.177 -2.1289999 -1.8099999 0.56
-9.1680002 -2.1570001 -1.809 0.34
-9.0430002 -2.158 -1.784 0.34
-9.0369997 -2.1860001 -1.784 0.25
-9.2200003 -2.2609999 -1.825 0.31999999
-9.2379999 -2.296 -1.83 0.31999999
4.7090001 -4.2049999 -1.1720001 0.25999999
4.7140002 -4.1820002 -1.17 0.25
4.7210002 -4.1620002 -1.168 0.34
4.7319999 -4.1459999 -1.168 0.44
4.757 -4.1420002 -1.171 0.28999999
4.8150001 -4.1789999 -1.1849999 0.14
4.9629998 -4.2810001 -1.221 0.44
4.8979998 -4.198 -1.2 0.30000001
4.7459998 -4.0409999 -1.155 0.41
4.6529999 -3.9349999 -1.127 0.38999999
4.579 -3.8469999 -1.104 0.31
4.5710001 -3.8169999 -1.098 0.34
4.5489998 -3.7850001 -1.091 0.56
4.3889999 -3.628 -1.045 0.25999999
4.3660002 -3.585 -1.036 0.28999999
4.3829999 -3.5769999 -1.0369999 0.40000001
4.4050002 -3.572 -1.04 0.33000001
4.4569998 -3.5910001 -1.051 0.23
4.5430002 -3.6370001 -1.071 0.28
4.5139999 -3.602 -1.061 0.47
4.5 -3.5680001 -1.0549999 0.41
4.5180001 -3.559 -1.057 0.44999999
-0.20999999 5.276 -1.01 0.16
-0.21699999 5.0630002 -0.96399999 0.28
-0.23199999 5.0580001 -0.963 0.38
-0.249 5.0770001 -0.96799999 0.5
-0.26800001 5.1269999 -0.97799999 0.23999999
4.9510002 -4.4349999 -1.303 0.54000002
4.9679999 -4.4219999 -1.304 0.66000003
4.816 -4.2610002 -1.257 0.30000001
4.783 -4.2179999 -1.245 0.41
4.789 -4.197 -1.243 0.36000001
4.8010001 -4.1810002 -1.243 0.5
4.8150001 -4.1669998 -1.243 0.46000001
4.8429999 -4.164 -1.247 0.16
4.9990001 -4.27 -1.288 0.34999999
4.9899998 -4.2360001 -1.281 0.57999998
4.967 -4.2030001 -1.273 0.40000001
4.8839998 -4.1069999 -1.2460001 0.58999997
4.8070002 -4.0170002 -1.221 0.38
4.6030002 -3.8239999 -1.161 0.58999997
4.5869999 -3.786 -1.153 0.40000001
4.5609999 -3.7409999 -1.143 0.51999998
4.4390001 -3.6300001 -1.107 0.38999999
4.447 -3.6140001 -1.1059999 0.34
4.4619999 -3.602 -1.107 0.54000002
4.487 -3.599 -1.1109999 0.2
4.5819998 -3.652 -1.1339999 0.47999999
4.598 -3.641 -1.135 0.56
4.6100001 -3.6259999 -1.135 0.44999999
-0.208 5.072 -1.008 0.20999999
-0.223 5.0689998 -1.007 0.38999999
-0.23199999 5.0840001 -1.011 0.41999999
-0.25600001 5.257 -1.05 0.18000001
4.9400001 -4.4489999 -1.358 0.38999999
4.9530001 -4.4330001 -1.358 0.64999998
4.8049998 -4.2709999 -1.309 0.28999999
4.7870002 -4.2290001 -1.3 0.28
4.7989998 -4.2129998 -1.3 0.41
4.802 -4.1890001 -1.2970001 0.44999999
4.823 -4.1939998 -1.301 0.44
4.9159999 -4.2210002 -1.321 0.44999999
4.9310002 -4.2069998 -1.321 0.40000001
4.9380002 -4.1859999 -1.319 0.58999997
4.9289999 -4.152 -1.313 0.34
4.7789998 -3.9990001 -1.265 0.43000001
4.7870002 -3.993 -1.266 0.28999999
4.7020001 -3.8959999 -1.238 0.62
4.4790001 -3.6860001 -1.169 0.33000001
4.448 -3.6370001 -1.1569999 0.33000001
4.4619999 -3.625 -1.158 0.41
4.4619999 -3.6010001 -1.154 0.38
4.5170002 -3.635 -1.169 0.18000001
4.599 -3.677 -1.189 0.38999999
4.6090002 -3.6619999 -1.188 0.47999999
4.6110001 -3.6400001 -1.186 0.31
4.619 -3.6229999 -1.1849999 0.50999999
-0.204 5.0219998 -1.041 0.23999999
-0.22 5.027 -1.043 0.34
-0.236 5.0250001 -1.0420001 0.30000001
-0.252 5.0339999 -1.044 0.14
4.8759999 -4.414 -1.4 0.41999999
4.881 -4.3909998 -1.398 0.36000001
4.908 -4.3870001 -1.402 0.38
4.9380002 -4.3860002 -1.4069999 0.52999997
4.7610002 -4.2030001 -1.348 0.23
4.744 -4.1750002 -1.341 0.25999999
4.763 -4.165 -1.3430001 0.41
4.7690001 -4.1440001 -1.34 0.37
4.7800002 -4.1279998 -1.34 0.28
4.823 -4.138 -1.349 0.19
4.855 -4.1389999 -1.355 0.34
4.855 -4.1129999 -1.351 0.44999999
4.8449998 -4.0910001 -1.346 0.37
4.79 -4.02 -1.326 0.38
4.7820001 -3.9879999 -1.319 0.41
4.743 -3.9300001 -1.304 0.28
4.7010002 -3.8710001 -1.288 0.49000001
4.598 -3.763 -1.253 0.37
4.4190001 -3.6059999 -1.198 0.28999999
4.4169998 -3.582 -1.194 0.31999999
4.4299998 -3.569 -1.1950001 0.36000001
4.4590001 -3.569 -1.2 0.17
4.5619998 -3.628 -1.227 0.34999999
4.5450001 -3.5910001 -1.219 0.38999999
4.5650001 -3.5829999 -1.221 0.38999999
4.5510001 -3.5610001 -1.215 0.28999999
-0.211 5.0890002 -1.099 0.23999999
-0.226 5.0650001 -1.0930001 0.38
-0.242 5.0780001 -1.097 0.37
-0.26699999 5.2600002 -1.14 0.15000001
4.9369998 -4.4699998 -1.474 0.31
4.9419999 -4.4460001 -1.472 0.46000001
4.9720001 -4.4450002 -1.477 0.38999999
4.9580002 -4.4050002 -1.4680001 0.57999998
4.8210001 -4.2550001 -1.419 0.27000001
4.7989998 -4.2090001 -1.408 0.34
4.8010001 -4.1830001 -1.404 0.38
4.809 -4.177 -1.405 0.36000001
4.8319998 -4.171 -1.408 0.38
4.8759999 -4.1820002 -1.418 0.31
4.914 -4.1890001 -1.426 0.33000001
4.9039998 -4.1529999 -1.418 0.43000001
4.8899999 -4.1149998 -1.41 0.36000001
4.8239999 -4.046 -1.387 0.41
4.7870002 -3.9630001 -1.368 0.36000001
4.7680001 -3.9219999 -1.358 0.52999997
4.4920001 -3.6689999 -1.268 0.28999999
4.467 -3.625 -1.257 0.28999999
4.4720001 -3.6070001 -1.255 0.41999999
4.4860001 -3.6059999 -1.257 0.25999999
4.6259999 -3.6949999 -1.2970001 0.25
4.6329999 -3.677 -1.296 0.47999999
4.6430001 -3.661 -1.295 0.25999999
4.631 -3.6289999 -1.288 0.47
-0.20299999 4.9790001 -1.125 0
-0.219 4.9899998 -1.127 0.13
-0.233 4.9580002 -1.12 0
-0.25099999 5.0040002 -1.131 0.11
4.8600001 -4.3709998 -1.513 0.54000002
4.7610002 -4.2550001 -1.476 0
4.6939998 -4.1700001 -1.449 0
4.6659999 -4.119 -1.4349999 0
4.6919999 -4.1160002 -1.4400001 0
4.7059999 -4.1149998 -1.442 0
4.7410002 -4.119 -1.449 0.090000004
4.7880001 -4.1329999 -1.46 0.16
4.8330002 -4.1459999 -1.471 0.34
4.8119998 -4.1020002 -1.46 0.31999999
4.789 -4.0310001 -1.444 0.33000001
4.7399998 -3.977 -1.426 0.28
4.724 -3.9389999 -1.4170001 0.34999999
4.6929998 -3.888 -1.403 0.25999999
4.4120002 -3.6340001 -1.308 0.23
4.3629999 -3.5710001 -1.289 0.23
4.3959999 -3.575 -1.295 0.20999999
4.388 -3.5569999 -1.291 0.25
4.4580002 -3.5899999 -1.3099999 0.17
4.5450001 -3.6370001 -1.334 0.31999999
4.5469999 -3.615 -1.331 0.28999999
4.5560002 -3.598 -1.33 0.30000001
4.5780001 -3.592 -1.334 0.31999999
-0.211 5.0040002 -1.183 0.23999999
-0.227 5.0079999 -1.184 0.36000001
-0.235 5.0149999 -1.186 0.30000001
-0.25600001 5.1149998 -1.212 0.14
4.8309999 -4.408 -1.581 0.51999998
4.8759999 -4.3930001 -1.587 0.57999998
5.0289998 -4.5180001 -1.6390001 0
4.7579999 -4.2459998 -1.539 0
4.724 -4.1890001 -1.522 0.050000001
4.7179999 -4.1570001 -1.516 0.15000001
4.73 -4.1409998 -1.515 0.1
4.7470002 -4.1300001 -1.517 0.039999999
4.8319998 -4.165 -1.54 0.2
4.848 -4.152 -1.541 0.41999999
4.8169999 -4.099 -1.525 0.38
4.7930002 -4.052 -1.513 0.37
4.7820001 -4.0170002 -1.505 0.36000001
4.7420001 -3.957 -1.487 0.31999999
4.7090001 -3.9170001 -1.473 0.47999999
4.5149999 -3.73 -1.403 0.28999999
4.3790002 -3.5940001 -1.354 0.31999999
4.3870001 -3.5780001 -1.353 0.34
4.415 -3.5769999 -1.358 0.40000001
4.4380002 -3.573 -1.362 0.20999999
4.5229998 -3.619 -1.387 0.36000001
4.4970002 -3.586 -1.376 0.37
4.4619999 -3.5350001 -1.3609999 0.37
-0.206 5.0549998 -1.252 0.25
-0.221 5.04 -1.248 0.28999999
-0.23800001 5.0489998 -1.251 0.25999999
-0.25400001 5.0619998 -1.2539999 0.13
4.8330002 -4.402 -1.653 0.40000001
4.8400002 -4.381 -1.651 0.36000001
4.8629999 -4.3740001 -1.654 0.37
4.7270002 -4.2259998 -1.6 0
4.7849998 -4.2509999 -1.6160001 0
4.7579999 -4.1999998 -1.601 0.02
4.7649999 -4.1799998 -1.599 0.13
4.7820001 -4.1810002 -1.603 0
4.789 -4.1609998 -1.601 0.050000001
4.8049998 -4.1490002 -1.602 0.13
4.8530002 -4.1630001 -1.614 0.14
4.881 -4.1609998 -1.62 0.41
4.8740001 -4.1279998 -1.612 0.36000001
4.8400002 -4.0869999 -1.598 0.36000001
4.8260002 -4.0489998 -1.589 0.38
4.7880001 -3.9920001 -1.571 0.33000001
4.7589998 -3.9430001 -1.556 0.36000001
4.73 -3.8940001 -1.5420001 0.44999999
4.4489999 -3.642 -1.439 0.25999999
4.447 -3.6170001 -1.4349999 0.31
4.454 -3.6110001 -1.4349999 0.38999999
4.4809999 -3.609 -1.441 0.20999999
4.566 -3.654 -1.466 0.28999999
4.553 -3.6199999 -1.4579999 0.37
4.539 -3.586 -1.449 0.31999999
-0.19400001 5.0339999 -1.291 0.28999999
-0.20900001 4.9949999 -1.28 0.31999999
-0.22499999 5.006 -1.283 0.38999999
-0.23999999 4.9980001 -1.281 0.25
-0.25999999 5.2779999 -1.36 0.31999999
4.6750002 -4.2020001 -1.641 0.38999999
4.684 -4.184 -1.6390001 0.34999999
4.691 -4.164 -1.637 0.30000001
4.7090001 -4.1529999 -1.638 0.44
4.7199998 -4.1370001 -1.638 0.30000001
4.73 -4.119 -1.637 0.44999999
4.7410002 -4.1160002 -1.638 0.38
4.7540002 -4.1009998 -1.638 0.41999999
4.7639999 -4.0830002 -1.637 0.34
4.7779999 -4.0700002 -1.638 0.34
4.7820001 -4.0469999 -1.635 0.28999999
4.7800002 -4.0190001 -1.6289999 0.31999999
4.7649999 -3.9809999 -1.619 0.36000001
4.723 -3.9319999 -1.601 0.33000001
4.6900001 -3.881 -1.585 0.47999999
4.3930001 -3.609 -1.472 0.30000001
