# .PCD v0.7 - Point Cloud Data file format
VERSION 0.7
FIELDS x y z intensity
SIZE 4 4 4 4
TYPE F F F F
COUNT 1 1 1 1
WIDTH 118
HEIGHT 1
VIEWPOINT 0 0 0 1 0 0 0
POINTS 118
DATA ascii
-9.151 -1.893 0.52499998 0.88999999
-8.9069996 -1.87 0.51700002 0.99000001
-8.8649998 -1.876 0.51599997 0.99000001
-8.8140001 -1.8940001 0.514 0.99000001
-8.783 -1.916 0.51300001 0.99000001
-8.7790003 -1.944 0.51300001 0.99000001
-8.7779999 -1.973 0.51300001 0.99000001
-8.7700005 -2 0.51300001 0.99000001
-8.7709999 -2.03 0.514 0.99000001
-8.7679996 -2.043 0.514 0.99000001
-8.7679996 -2.072 0.514 0.99000001
-8.7609997 -2.0999999 0.514 0.99000001
-8.7559996 -2.128 0.514 0.99000001
-8.75 -2.155 0.514 0.99000001
-8.7410002 -2.1819999 0.514 0.99000001
-8.7299995 -2.2090001 0.514 0.99000001
-8.7250004 -2.2219999 0.514 0.99000001
-8.7220001 -2.25 0.514 0.99000001
-8.7010002 -2.2739999 0.51300001 0.99000001
-8.6800003 -2.2980001 0.51300001 0.99000001
-8.6859999 -2.329 0.51300001 0.99000001
-8.658 -2.3499999 0.51200002 0.99000001
-8.6739998 -2.3840001 0.51300001 0.81999999
-9.0939999 -1.885 0.46399999 0.91000003
-8.8739996 -1.869 0.458 0.99000001
-8.8649998 -1.896 0.458 0.99000001
-8.8210001 -1.916 0.45699999 0.99000001
-8.8179998 -1.9299999 0.45699999 0.99000001
-8.8120003 -1.957 0.45699999 0.99000001
-8.8079996 -1.985 0.45699999 0.99000001
-8.7980003 -2.0120001 0.45699999 0.99000001
-8.7910004 -2.04 0.45699999 0.99000001
-8.7790003 -2.066 0.456 0.99000001
-8.7709999 -2.0929999 0.456 0.99000001
-8.7690001 -2.1070001 0.456 0.99000001
-8.7489996 -2.132 0.456 0.99000001
-8.7370005 -2.158 0.456 0.99000001
-8.7370005 -2.187 0.456 0.99000001
-8.7150002 -2.211 0.456 0.99000001
-8.7080002 -2.2379999 0.456 0.99000001
-8.6929998 -2.263 0.45500001 0.99000001
-8.6739998 -2.273 0.45500001 0.99000001
-8.6610003 -2.299 0.45500001 0.99000001
-8.6520004 -2.325 0.45500001 0.99000001
-8.9379997 -2.4319999 0.463 0.83999997
-9.1260004 -1.927 0.421 0.89999998
-8.8660002 -1.901 0.41499999 0.99000001
-8.8579998 -1.928 0.41499999 0.99000001
-8.8549995 -1.942 0.41499999 0.99000001
-8.8450003 -1.969 0.41499999 0.99000001
-8.835 -1.9960001 0.41499999 0.99000001
-8.8290005 -2.0239999 0.41499999 0.99000001
-8.8179998 -2.0510001 0.414 0.99000001
-8.8120003 -2.0780001 0.414 0.99000001
-8.8050003 -2.0910001 0.414 0.99000001
-8.8000002 -2.119 0.414 0.99000001
-8.7910004 -2.1459999 0.414 0.99000001
-8.7849998 -2.174 0.414 0.99000001
-8.7679996 -2.1989999 0.414 0.99000001
-8.7629995 -2.227 0.414 0.99000001
-8.7399998 -2.2509999 0.414 0.99000001
-8.7159996 -2.2590001 0.41299999 0.99000001
-8.7180004 -2.289 0.414 0.99000001
-8.7110004 -2.316 0.414 0.99000001
-8.8210001 -2.3759999 0.41600001 0.99000001
67.511002 34.894001 1.364 0.07
67.372002 35.091 1.363 0.079999998
67.237 35.289001 1.363 0
-46.688 56.308998 1.3200001 0
-9.0640001 -1.955 0.34900001 0.18000001
-8.9840002 -1.9680001 0.34799999 0.99000001
-8.8640003 -1.971 0.34599999 0.99000001
-8.8590002 -1.985 0.34599999 0.99000001
-8.9460001 -2.033 0.347 0.99000001
-8.9280005 -2.059 0.347 0.99000001
-8.9239998 -2.0869999 0.347 0.99000001
-8.9060001 -2.1129999 0.347 0.99000001
-8.8850002 -2.1370001 0.347 0.99000001
-8.8710003 -2.1630001 0.347 0.99000001
-8.8559999 -2.175 0.34599999 0.99000001
-8.8509998 -2.2030001 0.34599999 0.99000001
-8.8319998 -2.2279999 0.34599999 0.99000001
-8.8190002 -2.2539999 0.34599999 0.99000001
-8.816 -2.283 0.34599999 0.99000001
-8.7679996 -2.3 0.34599999 0.93000001
-8.8439999 -2.349 0.347 0.60000002
-8.8870001 -2.375 0.34799999 0.20999999
-8.8769999 -2.4030001 0.34799999 0.14
67.789001 34.528 0.97600001 0.23
67.669998 34.736 0.97600001 0.81999999
67.547997 34.942001 0.97600001 0.86000001
67.406998 35.138 0.97500002 0.72000003
67.391998 35.400002 0.97600001 0
-46.280998 56.32 0.94400001 0
-9.1400003 -2.033 0.30199999 0.80000001
-8.9110003 -2.0109999 0.30000001 0.99000001
-8.8470001 -2.026 0.29899999 0.99000001
-8.8380003 -2.053 0.29899999 0.99000001
-8.8319998 -2.0810001 0.29899999 0.99000001
-8.8249998 -2.0940001 0.29899999 0.99000001
-8.8219995 -2.122 0.29899999 0.99000001
-8.809 -2.1489999 0.29899999 0.99000001
-8.7889996 -2.1730001 0.29899999 0.99000001
-8.7939997 -2.2030001 0.29899999 0.99000001
-9.118 -2.316 0.30199999 0.69999999
-8.9189997 -2.1099999 0.236 0.14
-8.8850002 -2.132 0.236 0.44999999
-8.8970003 -2.1500001 0.236 0.1
-46.227001 56.299999 0.093999997 0.69999999
-46.700001 56.333 0.093000002 0
-9.0740004 -2.165 0.192 0.23
-9.0609999 -2.177 0.192 0.46000001
-9.073 -2.21 0.192 0.13
-9.0150003 -2.1589999 0.133 0.31
-9.0220003 -2.191 0.133 0.20999999
-9.007 -2.164 0.075999998 0.31
-8.9849997 -2.1889999 0.075999998 0.25999999
-9.0209999 -2.175 0.011 0.43000001
