# .PCD v0.7 - Point Cloud Data file format
VERSION 0.7
FIELDS x y z intensity
SIZE 4 4 4 4
TYPE F F F F
COUNT 1 1 1 1
WIDTH 822
HEIGHT 1
VIEWPOINT 0 0 0 1 0 0 0
POINTS 822
DATA ascii
-6.902 -11.038 -0.99599999 0.25
-5.0970001 -7.994 -0.73100001 0.31
-5.039 -7.9580002 -0.72500002 0.40000001
-5.0170002 -7.9790001 -0.72500002 0.30000001
-5.0170002 -8.0059996 -0.72799999 0.38
-4.9629998 -8.0880003 -0.73199999 0.43000001
-5.9239998 -7.691 -0.81300002 0.33000001
-5.8940001 -7.7020001 -0.81199998 0.49000001
-5.8499999 -7.6700001 -0.80699998 0.20999999
-5.112 -7.8959999 -0.78200001 0.44999999
-5.0700002 -7.8590002 -0.77600002 0.43000001
-5.0650001 -7.9050002 -0.77999997 0.30000001
-5.0380001 -7.9169998 -0.77899998 0.56
-5.033 -7.9650002 -0.78299999 0.28999999
-5.0029998 -7.9720001 -0.78200001 0.5
-4.9949999 -8.0150003 -0.78600001 0.28999999
-4.9679999 -8.0290003 -0.78500003 0.52999997
-5.9590001 -7.744 -0.884 0.17
-5.902 -7.7199998 -0.87800002 0.44
-5.849 -7.6760001 -0.87099999 0.15000001
-5.697 -7.5240002 -0.847 0
-5.6820002 -7.553 -0.84799999 0
-5.612 -7.5089998 -0.83999997 0
-5.5440001 -7.4650002 -0.83200002 0
-5.4829998 -7.4310002 -0.824 0
-5.427 -7.381 -0.81599998 0
-5.401 -7.3930001 -0.81599998 0
-5.46 -7.5240002 -0.83099997 0
-5.4159999 -7.5120001 -0.82700002 0
-5.3730001 -7.5029998 -0.824 0
-5.3540001 -7.527 -0.82499999 0
-5.322 -7.5300002 -0.82300001 0
-5.2940001 -7.5159998 -0.81999999 0
-5.2839999 -7.552 -0.82200003 0
-5.2719998 -7.5869999 -0.82499999 0
-5.2360001 -7.585 -0.82200003 0
-5.2189999 -7.612 -0.824 0.07
-5.2090001 -7.6479998 -0.82599998 0.090000004
-5.1989999 -7.6849999 -0.829 0.15000001
-5.1989999 -7.7119999 -0.83200002 0.090000004
-5.178 -7.7329998 -0.83200002 0.090000004
-5.1830001 -7.7940001 -0.838 0
-4.6630001 -7.1529999 -0.74699998 0
-5.0370002 -7.757 -0.82599998 0.1
-5.1040001 -7.915 -0.84500003 0
-5.0619998 -7.9039998 -0.84100002 0.1
-5.046 -7.9349999 -0.84299999 0
-5.027 -7.9590001 -0.84399998 0
-5.0050001 -7.98 -0.84500003 0
-5.033 -8.0819998 -0.85600001 0.1
-5.0009999 -8.0579996 -0.852 0.31999999
-4.9850001 -8.0889997 -0.85399997 0.2
-4.9419999 -8.1339998 -0.85600001 0.050000001
-6.1989999 -7.8559999 -0.972 0.31999999
-5.9959998 -7.7480001 -0.94700003 0.50999999
-5.9219999 -7.7030001 -0.93800002 0.2
-5.8590002 -7.671 -0.93000001 0.31999999
-5.7779999 -7.6149998 -0.91900003 0.28
-5.7270002 -7.573 -0.912 0.49000001
-5.6350002 -7.5009999 -0.89899999 0.23
-5.5770001 -7.473 -0.89200002 0.20999999
-5.5100002 -7.4310002 -0.88300002 0.11
-5.447 -7.3959999 -0.87599999 0.15000001
-5.3790002 -7.3520002 -0.86699998 0.18000001
-5.3449998 -7.3530002 -0.86400002 0.30000001
-5.342 -7.3740001 -0.866 0.16
-5.3299999 -7.4050002 -0.86799997 0.37
-5.3070002 -7.4239998 -0.86900002 0.16
-5.3049998 -7.4689999 -0.87300003 0.38
-5.3299999 -7.5539999 -0.88300002 0.23999999
-5.2610002 -7.507 -0.87300003 0.31
-5.2670002 -7.54 -0.87699997 0.20999999
-5.23 -7.539 -0.87400001 0.13
-5.2259998 -7.5830002 -0.87800002 0.16
-5.2189999 -7.6240001 -0.88200003 0.17
-5.2410002 -7.7069998 -0.89099997 0.30000001
-5.1830001 -7.6739998 -0.884 0.2
-5.1479998 -7.6739998 -0.88200003 0.31
-4.434 -6.684 -0.73900002 0.43000001
-4.4190001 -6.7059999 -0.74000001 0.31
-4.382 -6.697 -0.73699999 0
-4.3860002 -6.7490001 -0.74299997 0
-4.987 -7.9629998 -0.89999998 0
-4.171 -6.7140002 -0.72600001 0
-4.9580002 -8.0279999 -0.90499997 0
-4.9460001 -8.0380001 -0.90499997 0.039999999
-4.9299998 -8.1239996 -0.91299999 0.17
-4.9109998 -8.1499996 -0.91399997 0.38
-6.1409998 -7.8499999 -1.024 0.56
-6.0669999 -7.8060002 -1.015 0.20999999
-6.0089998 -7.7810001 -1.008 0.47999999
-5.9359999 -7.737 -0.99800003 0.22
-5.8860002 -7.6960001 -0.99000001 0.38
-5.809 -7.645 -0.97899997 0.37
-5.7509999 -7.618 -0.97299999 0.44999999
-5.6729999 -7.5630002 -0.96100003 0.38
-5.6030002 -7.5190001 -0.95200002 0.23999999
-5.5409999 -7.4840002 -0.94400001 0.11
-5.4829998 -7.4549999 -0.93699998 0.17
-5.427 -7.402 -0.92799997 0.22
-5.3720002 -7.3759999 -0.921 0.20999999
-5.3579998 -7.4060001 -0.92299998 0.20999999
-5.3449998 -7.4369998 -0.92500001 0.38
-5.3200002 -7.4499998 -0.92500001 0.18000001
-5.3260002 -7.5089998 -0.93099999 0.31999999
-5.3010001 -7.5240002 -0.93099999 0.14
-5.289 -7.533 -0.93099999 0.55000001
-5.2839999 -7.5749998 -0.935 0.31
-5.25 -7.5770001 -0.93199998 0.15000001
-5.197 -7.5510001 -0.926 0.51999998
-5.2140002 -7.6279998 -0.935 0.23999999
-5.2049999 -7.6659999 -0.93800002 0
-4.4499998 -6.6589999 -0.78399998 0
-4.4109998 -6.6469998 -0.77999997 0
-4.3969998 -6.671 -0.78200001 0
-4.5250001 -6.914 -0.815 0
-5.0869999 -7.8319998 -0.94700003 0
-4.382 -6.763 -0.79000002 0
-4.3610001 -6.777 -0.79000002 0
-4.3319998 -6.7789998 -0.78799999 0
-4.3740001 -6.8930001 -0.80299997 0
-4.348 -6.9000001 -0.80199999 0
-4.994 -7.9879999 -0.95700002 0
-4.994 -8.0439997 -0.963 0
-4.98 -8.0500002 -0.963 0
-4.9520001 -8.0609999 -0.96200001 0
-6.763 -8.3920002 -1.179 0.28999999
-6.7449999 -8.4239998 -1.181 0.51999998
-6.2360001 -7.8410001 -1.082 0.14
-6.2020001 -7.849 -1.08 0.36000001
-6.098 -7.7930002 -1.066 0.44
-6.0219998 -7.7459998 -1.056 0.22
-5.961 -7.7179999 -1.048 0.43000001
-5.869 -7.6490002 -1.034 0.14
-5.822 -7.6370001 -1.029 0.18000001
-5.7379999 -7.5770001 -1.016 0.54000002
-5.592 -7.4330001 -0.991 0.18000001
-5.5910001 -7.4559999 -0.99299997 0.15000001
-5.546 -7.4450002 -0.98799998 0.31
-5.4879999 -7.4169998 -0.98100001 0.2
-5.4239998 -7.3779998 -0.972 0.20999999
-5.355 -7.3330002 -0.96200001 0.25
-5.323 -7.3379998 -0.95999998 0.28999999
-5.3169999 -7.3530002 -0.96100003 0.27000001
-5.2969999 -7.3740001 -0.96200001 0.20999999
-5.2839999 -7.4060001 -0.96399999 0.38999999
-5.257 -7.4169998 -0.96399999 0.25
-5.25 -7.4559999 -0.96700001 0.19
-5.2360001 -7.4860001 -0.96899998 0.38999999
-5.2030001 -7.4889998 -0.96700001 0.25
-5.2020001 -7.5120001 -0.96899998 0.22
-5.1989999 -7.559 -0.97399998 0
-4.4070001 -6.4569998 -0.801 0.090000004
-5.1539998 -7.5949998 -0.97500002 0.17
-5.1339998 -7.6160002 -0.97600001 0.19
-5.118 -7.645 -0.97799999 0.46000001
-4.4629998 -6.7179999 -0.83200002 0.16
-4.4759998 -6.7600002 -0.838 0.33000001
-5.0890002 -7.7319999 -0.98500001 0.31999999
-5.0409999 -7.711 -0.97899997 0
-5.0219998 -7.7350001 -0.98000002 0
-4.3249998 -6.7140002 -0.82200003 0
-4.303 -6.7259998 -0.82200003 0
-4.3200002 -6.8000002 -0.83099997 0
-4.9359999 -7.79 -0.98000002 0
-4.3649998 -6.9419999 -0.85000002 0
-4.9429998 -7.9099998 -0.99400002 0
-4.947 -7.9710002 -1.001 0
-4.9070001 -7.9629998 -0.99699998 0
-4.9120002 -8.1110001 -1.0140001 0.28
-4.8899999 -8.1330004 -1.015 0.50999999
-6.947 -8.3559999 -1.266 0.5
-6.9159999 -8.3999996 -1.268 0.17
-6.868 -8.3950005 -1.2640001 0.69999999
-6.868 -8.4490004 -1.2690001 0.2
-6.8340001 -8.4610004 -1.268 0.57999998
-6.8109999 -8.4879999 -1.2690001 0.33000001
-6.2820001 -7.875 -1.16 0.5
-6.2199998 -7.823 -1.149 0.19
-6.1529999 -7.7880001 -1.14 0.31
-6.0819998 -7.7480001 -1.1289999 0.23999999
-6.0139999 -7.711 -1.12 0.28
-5.9310002 -7.6539998 -1.107 0
-5.8699999 -7.6240001 -1.099 0
-5.4109998 -7.4029999 -1.038 0.23999999
-5.3899999 -7.4239998 -1.038 0.28999999
-5.369 -7.4439998 -1.039 0.28999999
-5.3559999 -7.4749999 -1.041 0.28999999
-5.3460002 -7.5110002 -1.044 0.30000001
-5.3189998 -7.5229998 -1.044 0.27000001
-5.309 -7.559 -1.0470001 0.25
-5.2940001 -7.5630002 -1.046 0.25
-5.2880001 -7.605 -1.05 0.34
-5.2620001 -7.619 -1.05 0.2
-5.2480001 -7.6500001 -1.052 0.41
-5.2290001 -7.6750002 -1.053 0.25
-5.21 -7.698 -1.0549999 0.25999999
-5.211 -7.7519999 -1.061 0.25
-5.1950002 -7.7550001 -1.0599999 0.20999999
-5.1849999 -7.7930002 -1.063 0.15000001
-4.7090001 -7.1220002 -0.95200002 0.38999999
-4.5929999 -6.994 -0.92900002 0.13
-5.1300001 -7.8699999 -1.068 0.27000001
-5.0960002 -7.8720002 -1.066 0
-4.3909998 -6.7989998 -0.89300001 0
-4.3930001 -6.8499999 -0.898 0.11
-4.3870001 -6.8889999 -0.90200001 0.25999999
-4.3449998 -6.8699999 -0.89700001 0.23
-4.3119998 -6.8660002 -0.89399999 0
-4.2969999 -6.8889999 -0.89600003 0
-4.3600001 -7.0409999 -0.91799998 0
-4.9320002 -7.9990001 -1.068 0
-4.9320002 -8.1129999 -1.082 0.15000001
-4.9029999 -8.1219997 -1.08 0.34999999
-6.8179998 -8.3909998 -1.332 0.13
-6.7800002 -8.3979998 -1.33 0
-6.2049999 -7.7880001 -1.211 0
-6.1370001 -7.7540002 -1.202 0
-6.0599999 -7.7059999 -1.1900001 0
-6.0180001 -7.678 -1.183 0
-5.947 -7.6360002 -1.1720001 0
-5.9060001 -7.6329999 -1.168 0
-5.1240001 -6.7150002 -0.99699998 0
-5.1090002 -6.7389998 -0.99900001 0
-5.0869999 -6.7529998 -0.99900001 0
-5.0760002 -6.8060002 -1.0039999 0
-5.138 -6.9330001 -1.023 0
-5.348 -7.2620001 -1.079 0
-5.3530002 -7.3169999 -1.085 0.059999999
-5.342 -7.3499999 -1.0880001 0.2
-5.303 -7.3449998 -1.084 0.11
-5.29 -7.3509998 -1.084 0.15000001
-5.2649999 -7.3649998 -1.0829999 0.18000001
-5.2529998 -7.3969998 -1.086 0.28999999
-5.2420001 -7.4310002 -1.089 0.2
-5.2199998 -7.4499998 -1.089 0.19
-5.2080002 -7.4819999 -1.092 0.22
-5.197 -7.4920001 -1.0930001 0.2
-5.1820002 -7.52 -1.094 0.22
-5.1700001 -7.5539999 -1.098 0.2
-5.1550002 -7.5830002 -1.1 0.22
-5.1339998 -7.6020002 -1.1 0.19
-5.118 -7.6300001 -1.102 0.20999999
-5.1100001 -7.671 -1.107 0.18000001
-5.1090002 -7.6950002 -1.109 0
-4.546 -6.8990002 -0.97100002 0.1
-4.4790001 -6.8439999 -0.95999998 0.23999999
-5.0349998 -7.7410002 -1.109 0
-5.0409999 -7.8039999 -1.117 0
-4.3150001 -6.802 -0.94199997 0
-4.3179998 -6.8540001 -0.94800001 0
-4.289 -6.855 -0.94599998 0
-4.9060001 -8.0290003 -1.1339999 0.33000001
-4.8860002 -8.0530005 -1.135 0.18000001
-4.868 -8.0799999 -1.137 0.36000001
-4.8499999 -8.1090002 -1.1390001 0.20999999
-4.836 -8.1429996 -1.142 0.16
-4.8000002 -8.2279997 -1.15 0.12
-6.8769999 -8.3389997 -1.381 0.68000001
-6.849 -8.3590002 -1.38 0.40000001
-6.8470001 -8.3839998 -1.383 0.47
-6.8210001 -8.4049997 -1.383 0.38999999
-6.809 -8.4449997 -1.386 0.56999999
-6.8000002 -8.4879999 -1.391 0.38
-5.5250001 -6.9330001 -1.097 0
-5.506 -6.954 -1.097 0
-5.4850001 -6.9720001 -1.098 0
-5.4510002 -6.9510002 -1.092 0.07
-5.9749999 -7.6739998 -1.223 0
-5.9219999 -7.6550002 -1.216 0.11
-5.8860002 -7.658 -1.2130001 0
-5.7680001 -7.552 -1.1900001 0
-5.7090001 -7.5240002 -1.182 0.14
-5.6719999 -7.5 -1.175 0.22
-5.618 -7.4770002 -1.168 0.23
-5.533 -7.4120002 -1.153 0.19
-5.098 -6.8699999 -1.051 0.2
-5.0599999 -6.8639998 -1.0470001 0.56999999
-5.1110001 -6.98 -1.066 0.25999999
-5.3239999 -7.3200002 -1.124 0.38999999
-5.3239999 -7.3449998 -1.127 0.38999999
-5.2979999 -7.3579998 -1.126 0.28
-5.2810001 -7.3829999 -1.128 0.38999999
-5.2690001 -7.415 -1.131 0.38
-5.2470002 -7.434 -1.131 0.36000001
-5.2329998 -7.4629998 -1.133 0.36000001
-5.224 -7.5009999 -1.137 0.36000001
-5.211 -7.507 -1.137 0.37
-5.1950002 -7.5349998 -1.1390001 0.34
-5.1789999 -7.5630002 -1.141 0.36000001
-5.1669998 -7.5949998 -1.1440001 0.36000001
-5.1500001 -7.6230001 -1.146 0.31
-5.1300001 -7.6440001 -1.147 0.41999999
-5.1240001 -7.6620002 -1.148 0.47
-5.2529998 -7.9089999 -1.189 0
-4.4450002 -6.8249998 -0.99199998 0.52999997
-5.0279999 -7.8340001 -1.1619999 0.36000001
-5.0250001 -7.8569999 -1.164 0.31999999
-5.0219998 -7.9060001 -1.17 0.46000001
-4.9819999 -7.8979998 -1.166 0.2
-4.9770002 -7.9460001 -1.171 0.34
-4.9580002 -7.9720001 -1.173 0.34
-4.9359999 -7.9920001 -1.174 0.30000001
-4.9359999 -8.0480003 -1.181 0.34999999
-4.928 -8.0640001 -1.182 0.38
-4.9169998 -8.1040001 -1.186 0.38999999
-4.8829999 -8.1040001 -1.184 0.34999999
-4.8579998 -8.1210003 -1.184 0.38
-4.8189998 -8.1719999 -1.188 0.34
-4.8140001 -8.1929998 -1.1900001 0.38
-4.8000002 -8.2279997 -1.193 0.43000001
-4.7820001 -8.257 -1.196 0.18000001
-5.743 -9.9989996 -1.4859999 0.63999999
-6.908 -8.3219995 -1.459 0.49000001
-6.8870001 -8.349 -1.461 0.5
-6.848 -8.3559999 -1.457 0.64999998
-6.8299999 -8.3879995 -1.46 0.46000001
-5.5190001 -6.8070002 -1.145 0.15000001
-5.4650002 -6.7839999 -1.137 0.17
-5.4580002 -6.8200002 -1.141 0
-6.1830001 -7.7690001 -1.324 0.07
-5.3920002 -6.8249998 -1.135 0.14
-5.3660002 -6.835 -1.1339999 0
-5.3390002 -6.8460002 -1.132 0
-5.302 -6.8200002 -1.126 0
-5.29 -6.849 -1.128 0.1
-5.263 -6.8579998 -1.127 0.20999999
-5.2280002 -6.902 -1.1289999 0.38999999
-5.1939998 -6.9029999 -1.126 0.36000001
-5.4710002 -7.3150001 -1.202 0.16
-5.5040002 -7.3839998 -1.2130001 0.18000001
-5.1269999 -6.9260001 -1.122 0.27000001
-5.0500002 -6.8670001 -1.108 0.58999997
-5.0359998 -6.8940001 -1.11 0.22
-5.3140001 -7.3200002 -1.188 0.28
-5.2919998 -7.3379998 -1.188 0.47
-5.289 -7.3579998 -1.191 0.34
-5.2779999 -7.3920002 -1.194 0.36000001
-5.2639999 -7.4219999 -1.196 0.37
-5.2449999 -7.4429998 -1.197 0.36000001
-5.2309999 -7.474 -1.2 0.36000001
-5.211 -7.4949999 -1.201 0.38999999
-5.1999998 -7.5289998 -1.204 0.34
-5.2049999 -7.5619998 -1.209 0.41
-5.1859999 -7.585 -1.21 0.34
-5.178 -7.6240001 -1.214 0.38
-5.2820001 -7.8299999 -1.249 0.19
-4.7350001 -7.0710001 -1.1059999 0.19
-5.1329999 -7.7659998 -1.228 0.23
-5.2459998 -7.9629998 -1.263 0.57999998
-4.4879999 -6.8649998 -1.059 0.16
-4.4619999 -6.8720002 -1.058 0.30000001
-4.4400001 -6.8860002 -1.058 0.25
-5.1170001 -7.9840002 -1.255 0.27000001
-5.033 -7.908 -1.238 0.56999999
-5.026 -7.9239998 -1.24 0.30000001
-4.335 -6.8899999 -1.049 0.18000001
-4.3509998 -6.9619999 -1.0599999 0.22
-4.9689999 -8 -1.245 0.34
-4.9660001 -8.0509996 -1.252 0.38
-4.9499998 -8.0810003 -1.2539999 0.40000001
-4.921 -8.092 -1.253 0.38999999
-4.921 -8.1199999 -1.257 0.44999999
-4.8969998 -8.1389999 -1.258 0.38999999
-4.8660002 -8.1440001 -1.256 0.36000001
-4.842 -8.1619997 -1.256 0.41
-4.8260002 -8.1949997 -1.2589999 0.41
-4.803 -8.2130003 -1.26 0.27000001
-4.783 -8.2379999 -1.262 0.5
-5.8010001 -10.018 -1.576 0.18000001
-5.7470002 -9.9960003 -1.569 0.47
-7.0650001 -8.3859997 -1.6160001 0.16
-7.0780001 -8.4549999 -1.626 0.14
-6.8449998 -8.2279997 -1.574 0.20999999
-6.8140001 -8.2440004 -1.573 0.2
-6.7909999 -8.2690001 -1.574 0.25
-5.6090002 -6.8660002 -1.283 0.17
-5.5910001 -6.888 -1.283 0.15000001
-5.585 -6.9029999 -1.285 0.22
-5.4910002 -6.8299999 -1.266 0.99000001
-5.6040001 -7.0170002 -1.301 0.66000003
-5.4889998 -6.9169998 -1.277 0.28999999
-5.3930001 -6.8390002 -1.258 0.16
-6.1079998 -7.802 -1.448 0.44999999
-5.9990001 -7.7119999 -1.426 0.19
-5.9780002 -7.71 -1.424 0.5
-5.8000002 -7.5289998 -1.3839999 0.20999999
-5.7740002 -7.5440001 -1.383 0.23
-5.7779999 -7.598 -1.39 0.40000001
-5.7319999 -7.586 -1.3839999 0.30000001
-5.6420002 -7.5149999 -1.367 0.43000001
-5.1389999 -6.9099998 -1.242 0.76999998
-5.0819998 -6.8779998 -1.233 0.23
-5.059 -6.8920002 -1.232 0.61000001
-5.085 -6.974 -1.245 0.18000001
-5.2859998 -7.2989998 -1.306 0.18000001
-4.96 -6.8909998 -1.223 0.63
-5.0469999 -7.0380001 -1.25 0.23999999
-5.2490001 -7.369 -1.311 0.47999999
-5.2480001 -7.4180002 -1.318 0.23
-5.243 -7.461 -1.323 0.41999999
-5.2610002 -7.5370002 -1.334 0.27000001
-5.2249999 -7.5359998 -1.331 0.56
-4.8169999 -6.9899998 -1.223 0.23
-4.7280002 -6.8829999 -1.201 0.28999999
-5.1820002 -7.599 -1.335 0.28
-5.171 -7.6350002 -1.339 0.37
-5.1599998 -7.671 -1.3430001 0.38999999
-5.1300001 -7.6789999 -1.341 0.55000001
-4.5809999 -6.8990002 -1.1900001 0.23
-4.553 -6.9029999 -1.188 0.38
-4.9619999 -7.5539999 -1.3099999 0.17
-5.0689998 -7.7709999 -1.348 0.46000001
-5.0500002 -7.796 -1.35 0.30000001
-5.0370002 -7.8299999 -1.353 0.50999999
-4.4250002 -6.9200001 -1.179 0.36000001
-4.3699999 -6.881 -1.169 0.19
-4.349 -6.8720002 -1.166 0.16
-4.349 -6.9190001 -1.1720001 0.75
-4.3270001 -6.9330001 -1.1720001 0.76999998
-4.2940001 -6.928 -1.169 0.75
-4.2649999 -6.9299998 -1.1670001 0.50999999
-4.2449999 -6.947 -1.1670001 0.41
-4.8330002 -7.9720001 -1.355 0.31999999
-4.8260002 -7.9889998 -1.357 0.30000001
-4.1789999 -6.961 -1.164 0.20999999
-4.1539998 -6.9689999 -1.163 0.31
-4.1440001 -7.0019999 -1.1670001 0.23
-4.1110001 -6.9970002 -1.163 0.79000002
-4.158 -7.1279998 -1.1849999 0.62
-4.0599999 -7.0089998 -1.161 0.25
-4.0440001 -7.006 -1.159 0.14
-5.7480001 -10.055 -1.714 0.25999999
-5.71 -10.063 -1.712 0.47999999
-5.691 -10.103 -1.716 0.41
-5.7220001 -10.233 -1.737 0.28
-5.7270002 -10.318 -1.749 0.44
-7.0170002 -8.3579998 -1.715 0
-6.928 -8.3039999 -1.699 0.13
-6.822 -8.2309999 -1.678 0.2
-6.796 -8.2259998 -1.674 0.2
-5.6269999 -6.9050002 -1.377 0.31999999
-5.4710002 -6.7579999 -1.341 0.86000001
-5.454 -6.7810001 -1.342 0.18000001
-5.5279999 -6.9159999 -1.368 0.18000001
-6.217 -7.7979999 -1.557 0.19
-6.1659999 -7.7849998 -1.55 0.25
-6.1370001 -7.7979999 -1.548 0.44
-5.348 -6.8449998 -1.34 0.23
-6 -7.724 -1.524 0.41
-5.8769999 -7.6149998 -1.497 0.2
-5.8610001 -7.645 -1.499 0.40000001
-5.7030001 -7.4629998 -1.459 0.18000001
-5.7540002 -7.5780001 -1.479 0.47999999
-5.5149999 -7.3140001 -1.42 0.2
-5.1669998 -6.8990002 -1.3279999 0.36000001
-5.3260002 -7.1570001 -1.3789999 0.25
-5.4770002 -7.4060001 -1.428 0.27000001
-5.053 -6.9050002 -1.318 0.79000002
-5.0279999 -6.9159999 -1.317 0.60000002
-4.9879999 -6.9060001 -1.311 0.62
-4.9349999 -6.9250002 -1.309 0.61000001
-5.1659999 -7.2950001 -1.382 0.25999999
-4.8800001 -6.9159999 -1.302 0.38
-4.8520002 -6.9229999 -1.3 0.15000001
-5.2350001 -7.5149999 -1.419 0.33000001
-5.2189999 -7.5419998 -1.4220001 0.37
-5.2059999 -7.5749998 -1.425 0.38999999
-5.171 -7.5749998 -1.4220001 0.31999999
-5.1630001 -7.6139998 -1.426 0.51999998
-4.671 -6.9159999 -1.2819999 0.17
-4.6370001 -6.9130001 -1.278 0.41
-4.6560001 -6.9879999 -1.291 0.16
-5.105 -7.71 -1.434 0.37
-5.0890002 -7.737 -1.436 0.47999999
-4.4790001 -6.8629999 -1.257 0.20999999
-4.4089999 -6.8260002 -1.245 0.94999999
-4.4190001 -6.888 -1.255 0.70999998
-4.9000001 -7.6859999 -1.4119999 0.34999999
-4.3099999 -6.8600001 -1.2410001 0.60000002
-4.3319998 -6.967 -1.258 0.62
-4.9390001 -7.9920001 -1.459 0.31999999
-4.9369998 -8.0459995 -1.467 0.25999999
-4.914 -8.0649996 -1.467 0.36000001
-4.901 -8.1000004 -1.471 0.38999999
-4.8699999 -8.1070004 -1.47 0.31
-4.848 -8.1280003 -1.471 0.38999999
-4.835 -8.1350002 -1.471 0.30000001
-4.802 -8.1370001 -1.4680001 0.41999999
-4.7859998 -8.1689997 -1.471 0.33000001
-4.7690001 -8.1990004 -1.474 0.37
-4.744 -8.2139997 -1.474 0.40000001
-3.9519999 -6.9520001 -1.223 0.79000002
-4.0339999 -7.1209998 -1.255 0.19
-3.951 -7.027 -1.234 0.2
-5.5679998 -9.9530001 -1.798 0.20999999
-5.533 -9.9650002 -1.7970001 0.31999999
-5.5 -9.9790001 -1.796 0.30000001
-7.0609999 -8.4040003 -1.823 0.16
-7.04 -8.4329996 -1.824 0.20999999
-6.914 -8.3070002 -1.793 0.17
-6.802 -8.2250004 -1.7690001 0.23999999
-6.7919998 -8.2650003 -1.773 0.15000001
-5.6529999 -6.9619999 -1.466 0.81999999
-5.527 -6.849 -1.437 0.88999999
-5.5149999 -6.8569999 -1.436 0.36000001
-6.7709999 -8.4820004 -1.801 0.18000001
-6.2049999 -7.8200002 -1.646 0.28999999
-6.151 -7.802 -1.638 0.28999999
-6.1129999 -7.8049998 -1.6339999 0.31999999
-6.0560002 -7.7820001 -1.625 0.31999999
-5.4180002 -7.0029998 -1.446 0.25
-5.4180002 -7.026 -1.449 0.27000001
-5.4359999 -7.0960002 -1.461 0.25999999
-5.2979999 -6.9590001 -1.427 0.28999999
-5.2069998 -6.8839998 -1.4069999 0.28
-5.2670002 -7.0089998 -1.431 0.28999999
-5.3740001 -7.1999998 -1.469 0.16
-5.5100002 -7.4320002 -1.517 0.25
-5.5120001 -7.46 -1.521 0.36000001
-5.415 -7.3759999 -1.499 0.31999999
-5.3239999 -7.3000002 -1.478 0.23
-5.2950001 -7.3070002 -1.476 0.18000001
-5.0170002 -6.9679999 -1.399 0.62
-4.9689999 -6.947 -1.391 0.69999999
-4.9429998 -6.934 -1.386 0.25999999
-4.9219999 -6.9489999 -1.386 0.41
-4.8990002 -6.9629998 -1.386 0.36000001
-5.2410002 -7.5029998 -1.499 0.41
-5.2360001 -7.5469999 -1.505 0.34
-5.2080002 -7.5570002 -1.503 0.40000001
-5.2080002 -7.6090002 -1.511 0.54000002
-5.0700002 -7.4310002 -1.471 0.23
-4.6939998 -6.9229999 -1.359 0.28
-4.6680002 -6.9310002 -1.358 0.25
-5.131 -7.6750002 -1.513 0.31
-5.1090002 -7.6950002 -1.5140001 0.52999997
-5.039 -7.6420002 -1.499 0.23
-4.4809999 -6.8610001 -1.329 0.94999999
-4.4619999 -6.8779998 -1.33 0.79000002
-4.4759998 -6.948 -1.342 0.36000001
-5.0190001 -7.8499999 -1.528 0.43000001
-4.9959998 -7.869 -1.529 0.43000001
-4.9899998 -7.915 -1.535 0.28999999
-4.9660001 -7.9320002 -1.536 0.52999997
-4.2859998 -6.9109998 -1.318 0.63
-4.2989998 -6.9809999 -1.33 0.23999999
-4.2820001 -7.0029998 -1.332 0.25
-4.902 -8.0819998 -1.552 0.46000001
-4.8790002 -8.1009998 -1.553 0.37
-4.8730001 -8.1210003 -1.556 0.31
-4.8499999 -8.1389999 -1.556 0.36000001
-4.8109999 -8.132 -1.552 0.38999999
-4.789 -8.1529999 -1.553 0.36000001
-4.7719998 -8.1829996 -1.556 0.44
-4.743 -8.1929998 -1.5549999 0.25
-4.7410002 -8.2489996 -1.563 0.49000001
-3.8959999 -6.9980001 -1.296 0.81999999
-3.8889999 -7.0380001 -1.302 0.56999999
-6.796 -8.2119999 -1.845 0.22
-6.7649999 -8.2019997 -1.84 0.19
-6.743 -8.2270002 -1.841 0.16
-5.5840001 -6.9089999 -1.517 0.99000001
-5.612 -6.987 -1.5319999 0.70999998
-5.6149998 -7.0349998 -1.539 0
-6.3189998 -7.9380002 -1.75 0.12
-6.1739998 -7.8070002 -1.715 0.2
-6.1199999 -7.789 -1.706 0.31999999
-6.0879998 -7.7989998 -1.704 0.31999999
-6.0240002 -7.7670002 -1.692 0.050000001
-5.3010001 -6.8839998 -1.4809999 0.17
-5.2600002 -6.8759999 -1.475 0.23
-5.2719998 -6.914 -1.482 0.14
-5.2740002 -6.9619999 -1.489 0.34
-5.2399998 -6.9619999 -1.4859999 0.25
-5.2280002 -6.9910002 -1.489 0.11
-5.2350001 -7.0469999 -1.498 0.039999999
-5.2579999 -7.1240001 -1.512 0.13
-5.4000001 -7.3629999 -1.563 0.18000001
-5.323 -7.283 -1.5420001 0.18000001
-5.29 -7.2849998 -1.539 0.27000001
-5.277 -7.316 -1.5420001 0.16
-4.9710002 -6.9400001 -1.4529999 0.34999999
-4.9369998 -6.9380002 -1.449 0.56
-4.9120002 -6.9489999 -1.448 0.25
-4.8850002 -6.9580002 -1.446 0.17
-4.862 -6.948 -1.442 0.44999999
-4.8499999 -6.9780002 -1.446 0.059999999
-4.829 -6.9949999 -1.446 0.12
-4.7639999 -6.947 -1.432 0.16
-4.7280002 -6.9419999 -1.428 0.31
-4.796 -7.0890002 -1.457 0.19
-5.1469998 -7.6300001 -1.576 0.25999999
-5.1339998 -7.6620002 -1.58 0.38
-5.1110001 -7.6799998 -1.58 0.28999999
-4.527 -6.9000001 -1.4 0.80000001
-4.441 -6.8169999 -1.3789999 0.80000001
-4.4899998 -6.9380002 -1.402 0.55000001
-4.8060002 -7.4499998 -1.5140001 0.20999999
-5.0100002 -7.8169999 -1.591 0.30000001
-4.993 -7.8439999 -1.594 0.33000001
-4.9770002 -7.8730001 -1.597 0.38999999
-4.9400001 -7.8699999 -1.5930001 0.22
-4.948 -7.9369998 -1.604 0.33000001
-4.243 -6.8850002 -1.37 0.52999997
-4.2649999 -7.0180001 -1.393 0.34
-4.8249998 -7.9899998 -1.6 0.2
-4.8559999 -8.0970001 -1.62 0.28999999
-4.8330002 -8.118 -1.6210001 0.28999999
-4.823 -8.1289997 -1.622 0.28999999
-4.7989998 -8.1470003 -1.623 0.31999999
-4.7740002 -8.1639996 -1.623 0.28999999
-4.7459998 -8.1739998 -1.622 0.27000001
-4.7340002 -8.2119999 -1.627 0.38
-4.7350001 -8.2729998 -1.637 0.20999999
-3.9119999 -7.073 -1.369 0.73000002
-3.9460001 -7.1890001 -1.391 0.07
-5.6750002 -6.9380002 -1.6109999 0.17
-5.6609998 -6.967 -1.614 0.75999999
-5.5739999 -6.881 -1.59 0.93000001
-5.6890001 -7.0689998 -1.632 0.38999999
-6.25 -7.8210001 -1.814 0.16
-6.1989999 -7.8070002 -1.806 0.20999999
-6.1550002 -7.802 -1.799 0.28
-6.1259999 -7.8150001 -1.798 0.28
-6.1100001 -7.8200002 -1.7970001 0.27000001
-6.0910001 -7.8470001 -1.799 0.23999999
-6.0580001 -7.855 -1.796 0.13
-5.9689999 -7.789 -1.776 0.079999998
-5.3579998 -7.033 -1.587 0.039999999
-5.2709999 -6.9640002 -1.566 0.07
-5.3800001 -7.1550002 -1.609 0.15000001
-5.4489999 -7.2719998 -1.635 0.16
-5.3280001 -7.1560001 -1.603 0.1
-5.125 -6.928 -1.544 0.15000001
-5.1059999 -6.947 -1.545 0.13
-5.0749998 -6.9499998 -1.5420001 0.20999999
-5.0370002 -6.9439998 -1.536 0.15000001
-5.0180001 -6.941 -1.534 0.25
-5.0019999 -6.9650002 -1.536 0.51999998
-4.9530001 -6.9419999 -1.527 0.23999999
-4.9429998 -6.9749999 -1.531 0.25
-4.8990002 -6.9580002 -1.523 0.20999999
-4.8660002 -6.9580002 -1.5190001 0.25999999
-4.8379998 -6.9650002 -1.517 0.25
-4.835 -6.9840002 -1.52 0
-4.8940001 -7.1170001 -1.548 0
-4.836 -7.0799999 -1.536 0.050000001
-4.8080001 -7.086 -1.533 0.11
-5.118 -7.599 -1.649 0.27000001
-5.0739999 -7.5840001 -1.642 0.16
-4.5599999 -6.881 -1.474 0.75999999
-4.631 -7.0359998 -1.506 0.66000003
-4.658 -7.1760001 -1.5319999 0.19
-5.0489998 -7.8369999 -1.681 0.20999999
-5.0289998 -7.8600001 -1.682 0.15000001
-5.0170002 -7.895 -1.687 0.28999999
-5.0110002 -7.915 -1.689 0.18000001
-4.9959998 -7.9450002 -1.693 0.13
-4.9689999 -7.9580002 -1.692 0.18000001
-4.9390001 -7.9650002 -1.6900001 0.1
-4.2950001 -6.9689999 -1.46 0.12
-4.2379999 -6.9250002 -1.447 0.17
-4.2119999 -6.9320002 -1.446 0.41
-4.211 -6.9549999 -1.45 0.34
-4.1950002 -6.9770002 -1.452 0.44999999
-4.197 -7.0310001 -1.461 0.23999999
-4.8270001 -8.1520004 -1.71 0.28
-4.796 -8.1590004 -1.7079999 0.23
-4.776 -8.184 -1.71 0.16
-4.7789998 -8.2189999 -1.716 0.050000001
-4.8109999 -8.3339996 -1.739 0.15000001
-3.925 -7.0710001 -1.441 0.64999998
-3.832 -6.9530001 -1.4119999 0.18000001
-6.1440001 -7.428 -1.855 0.30000001
-6.112 -7.4369998 -1.852 0.28999999
-6.0869999 -7.4549999 -1.852 0.28
-6.052 -7.4590001 -1.847 0.28999999
-5.9369998 -7.3649998 -1.818 0.16
-5.6040001 -6.9770002 -1.7130001 0.83999997
-5.5009999 -6.8930001 -1.686 0.93000001
-5.796 -7.355 -1.798 0.31999999
-5.849 -7.4699998 -1.823 0.25
-5.823 -7.4850001 -1.823 0.34999999
-5.809 -7.5159998 -1.826 0.28
-5.809 -7.54 -1.83 0.34999999
-5.7859998 -7.5580001 -1.83 0.34
-5.7449999 -7.5549998 -1.824 0.27000001
-5.7420001 -7.599 -1.831 0.30000001
-5.408 -7.3249998 -1.745 0.25999999
-5.3249998 -7.2620001 -1.724 0.23
-5.3000002 -7.2750001 -1.724 0.30000001
-5.0840001 -7.026 -1.656 0.31999999
-5.1129999 -7.1129999 -1.674 0.66000003
-5.0770001 -7.1100001 -1.669 0.18000001
-5.1960001 -7.3239999 -1.719 0.43000001
-4.8850002 -6.9109998 -1.613 0.20999999
-5.4759998 -7.7930002 -1.831 0.31999999
-5.4549999 -7.8150001 -1.832 0.31
-5.4219999 -7.8210001 -1.829 0.16
-4.698 -6.8280001 -1.577 0.19
-4.6700001 -6.8330002 -1.575 0.2
-4.6589999 -6.8639998 -1.579 0.27000001
-4.5370002 -6.8920002 -1.5700001 0.83999997
-4.6240001 -7.0710001 -1.61 0.62
-5.1490002 -7.9499998 -1.8200001 0.38
-3.9319999 -7.0840001 -1.539 0.79000002
-3.895 -7.0689998 -1.533 0.54000002
-5.836 -7.1609998 -1.859 0.34
-5.823 -7.1919999 -1.863 0.36000001
-5.8140001 -7.204 -1.864 0.34999999
-5.7909999 -7.2210002 -1.863 0.36000001
-5.7690001 -7.2399998 -1.864 0.31999999
-5.7259998 -7.2319999 -1.857 0.36000001
-5.6859999 -7.2290001 -1.851 0.23
-5.5359998 -7.0830002 -1.806 0.70999998
-5.4359999 -7 -1.779 0.99000001
-5.5900002 -7.2220001 -1.837 0.74000001
-5.4369998 -7.0689998 -1.791 0.31
-5.4949999 -7.1919999 -1.819 0.38
-5.5229998 -7.276 -1.837 0.30000001
-5.0819998 -7.0310001 -1.739 0.99000001
-5.0960002 -7.098 -1.752 0.75
-5.2940001 -7.401 -1.83 0.27000001
-5.3000002 -7.4590001 -1.841 0.38
-4.4920001 -6.9439998 -1.652 0.99000001
-4.6110001 -7.1789999 -1.7079999 0.74000001
-4.9039998 -7.6919999 -1.835 0.20999999
-3.9820001 -7.1750002 -1.638 0.80000001
-4.059 -7.342 -1.677 0.74000001
-5.4899998 -6.9559999 -1.851 0.28999999
-5.4840002 -6.993 -1.857 0.34999999
-5.4559999 -7.0019999 -1.855 0.44
-5.4419999 -7.0300002 -1.858 0.36000001
-5.4219999 -7.0500002 -1.859 0.34
-5.4099998 -7.0570002 -1.858 0.33000001
-5.382 -7.0669999 -1.8559999 0.28999999
-5.3509998 -7.073 -1.853 0.54000002
-5.3200002 -7.0770001 -1.85 0.77999997
-5.2930002 -7.0869999 -1.848 0.81
-5.256 -7.085 -1.8430001 0.72000003
-5.2270002 -7.0679998 -1.836 0.63999999
-5.1939998 -7.0710001 -1.832 0.40000001
-5.1859999 -7.1059999 -1.837 0.36000001
-5.1690001 -7.1300001 -1.839 0.33000001
-5.1490002 -7.1490002 -1.84 0.31
-5.1300001 -7.1700001 -1.841 0.28
-5.1220002 -7.2069998 -1.847 0.23
-5.1170001 -7.224 -1.85 0.51999998
-5.0409999 -7.164 -1.829 0.31999999
-4.9970002 -7.1490002 -1.8200001 0.2
-5.0489998 -7.2719998 -1.85 0.36000001
-4.4710002 -6.9910002 -1.726 0.75
-4.4549999 -7.0139999 -1.728 0.88
-4.4219999 -7.0110002 -1.724 0.63
-4.1370001 -7.2459998 -1.7359999 0.40000001
-4.0110002 -7.1040001 -1.6950001 0.93000001
-4.0910001 -7.2989998 -1.7410001 0.66000003
-4.1479998 -7.4549999 -1.778 0.18000001
-5 -6.8870001 -1.848 0.28999999
-4.9759998 -6.8990002 -1.847 0.34
-4.9520001 -6.9109998 -1.846 0.28999999
-4.948 -6.9289999 -1.849 0.30000001
-4.9159999 -6.9299998 -1.845 0.30000001
-4.8839998 -6.9310002 -1.841 0.47
-4.869 -6.9559999 -1.844 0.25
-4.8119998 -6.921 -1.83 0.27000001
-4.7919998 -6.9380002 -1.83 0.28999999
-4.6160002 -7.105 -1.84 0.28999999
-4.579 -7.0970001 -1.8329999 0.30000001
-4.5539999 -7.1079998 -1.832 0.31
-4.539 -7.1339998 -1.836 0.28999999
-4.5019999 -7.125 -1.829 0.31
-4.4749999 -7.105 -1.822 0.20999999
-4.402 -7.0380001 -1.8 0.17
-4.3379998 -6.9840002 -1.781 0.40000001
-4.3460002 -7.046 -1.794 0.86000001
-4.3239999 -7.0609999 -1.795 0.83999997
-4.276 -7.0310001 -1.783 0.74000001
-4.2420001 -7.0250001 -1.778 0.52999997
-4.2329998 -7.0349998 -1.779 0.34
-4.1989999 -7.0279999 -1.773 0.33000001
-4.1739998 -7.0359998 -1.772 0.28
-4.1490002 -7.0440001 -1.771 0.20999999
-4.1350002 -7.072 -1.775 0.20999999
-4.1209998 -7.099 -1.778 0.79000002
-4.079 -7.0780001 -1.7690001 0.88999999
-4.0840001 -7.1129999 -1.777 0.81999999
-4.0450001 -7.0949998 -1.7690001 0.58999997
-4.0910001 -7.23 -1.801 0.31999999
-4.0960002 -7.2919998 -1.814 0.31
-4.079 -7.3150001 -1.817 0.28999999
-4.0549998 -7.3260002 -1.817 0.28999999
-4.0359998 -7.3189998 -1.813 0.30000001
-4.0149999 -7.335 -1.814 0.28999999
-3.987 -7.3390002 -1.812 0.28
-3.9519999 -7.329 -1.806 0.31999999
-4.402 -6.8909998 -1.8380001 0.38999999
-4.3769999 -6.9000001 -1.837 0.30000001
-4.3530002 -6.9099998 -1.836 0.30000001
-4.3330002 -6.927 -1.837 0.28999999
-4.3109999 -6.9159999 -1.832 0.28999999
-4.2989998 -6.9439998 -1.836 0.28999999
-4.2729998 -6.9510002 -1.834 0.28999999
-4.2480001 -6.9590001 -1.832 0.28999999
-4.224 -6.9689999 -1.832 0.27000001
-4.1960001 -6.9720001 -1.829 0.23
-4.1820002 -6.9990001 -1.832 0.36000001
-4.1680002 -7 -1.831 0.34
-4.1420002 -7.007 -1.829 0.31999999
-4.1129999 -7.0079999 -1.826 0.31
-4.099 -7.0339999 -1.83 0.36000001
-4.072 -7.039 -1.827 0.34999999
-4.053 -7.0570002 -1.829 0.34
-4.0450001 -7.0700002 -1.831 0.34999999
-4.0219998 -7.0809999 -1.83 0.31999999
-3.994 -7.0830002 -1.827 0.34
-3.9690001 -7.0910001 -1.826 0.33000001
-3.948 -7.105 -1.826 0.34
-3.9230001 -7.1139998 -1.825 0.31999999
-3.902 -7.1279998 -1.826 0.31
-3.8859999 -7.125 -1.824 0.34
