# .PCD v0.7 - Point Cloud Data file format
VERSION 0.7
FIELDS x y z intensity
SIZE 4 4 4 4
TYPE F F F F
COUNT 1 1 1 1
WIDTH 1491
HEIGHT 1
VIEWPOINT 0 0 0 1 0 0 0
POINTS 1491
DATA ascii
3.425 6.3309999 0.45300001 0.41999999
3.3870001 6.3080001 0.45100001 0.41999999
3.3599999 6.2800002 0.44999999 0.38999999
3.326 6.2639999 0.449 0.38999999
3.289 6.2410002 0.44800001 0.38999999
3.2509999 6.2160001 0.44600001 0.38999999
3.2149999 6.1939998 0.44499999 0.38999999
3.178 6.1700001 0.44400001 0.38999999
3.1459999 6.1550002 0.44299999 0.41
3.125 6.1370001 0.442 0.40000001
3.086 6.1069999 0.44 0.38
3.0480001 6.079 0.43900001 0.46000001
3.0179999 6.0669999 0.43799999 0.38
2.9849999 6.0479999 0.43700001 0.38
2.9519999 6.0289998 0.43599999 0.38999999
2.9189999 6.0089998 0.435 0.46000001
2.898 5.9879999 0.43399999 0.38
2.862 5.9629998 0.433 0.38999999
2.8329999 5.9489999 0.43200001 0.38999999
2.796 5.9190001 0.43000001 0.44999999
2.7720001 5.9159999 0.43000001 0.37
2.7349999 5.8860002 0.42899999 0.46000001
2.711 5.882 0.428 0.38
2.6889999 5.8569999 0.42699999 0.38999999
2.652 5.8249998 0.426 0.46000001
2.6270001 5.8189998 0.42500001 0.38
2.5929999 5.7909999 0.42399999 0.44999999
2.5710001 5.79 0.42300001 0.36000001
2.54 5.7680001 0.42199999 0.44
2.52 5.7470002 0.421 0.41
2.487 5.7220001 0.41999999 0.41
2.4590001 5.7049999 0.419 0.40000001
2.4400001 5.7090001 0.419 0.34
2.405 5.678 0.41800001 0.43000001
2.3800001 5.6669998 0.417 0.41
2.348 5.6420002 0.41600001 0.41
2.3399999 5.6469998 0.41600001 0.41
2.3039999 5.6079998 0.414 0.41
2.279 5.5970001 0.41299999 0.41
2.2539999 5.5869999 0.41299999 0.41
2.2279999 5.572 0.412 0.41
2.2 5.553 0.41100001 0.41
2.1730001 5.5339999 0.41 0.40000001
2.1600001 5.5279999 0.41 0.38999999
2.1289999 5.4970002 0.40799999 0.41
2.082 5.4250002 0.40599999 0.34
2.0539999 5.402 0.405 0.41
2.109 5.6030002 0.412 0.19
2.006 5.3790002 0.403 0.16
3.036 8.2989998 0.50800002 0.30000001
3.0139999 8.3199997 0.50800002 0.43000001
3.0009999 8.3649998 0.50999999 0.40000001
26.892 -58.736 2.3940001 0
27.705 -60.012001 2.444 0
29.364 -62.820999 2.5539999 0
30.306999 -64.309998 2.6129999 0
42.549999 32.856998 1.686 0.20999999
8.5500002 6.671 0.50700003 0
8.1440001 6.3979998 0.493 0
7.8629999 6.2179999 0.484 0
7.6160002 6.0630002 0.47600001 0
7.3990002 5.928 0.46900001 0
7.177 5.77 0.46200001 0
6.9580002 5.631 0.45500001 0
6.7719998 5.5170002 0.449 0
6.6139998 5.4229999 0.44400001 0
6.448 5.322 0.43799999 0
6.2870002 5.223 0.433 0
6.1440001 5.138 0.42899999 0
6.0320001 5.0609999 0.42500001 0
5.8670001 4.9549999 0.41999999 0
5.7389998 4.8779998 0.41600001 0
5.6040001 4.7950001 0.41100001 0
5.4520001 4.6960001 0.40599999 0
5.3179998 4.6100001 0.40200001 0
5.1880002 4.5120001 0.398 0
5.046 4.4169998 0.39300001 0
4.9159999 4.3319998 0.389 0
4.7909999 4.2490001 0.38499999 0
4.665 4.165 0.38 0
4.5539999 4.092 0.377 0
4.4530001 4.027 0.37400001 0
4.362 3.9579999 0.37 0
4.2930002 3.921 0.368 0
4.1890001 3.8510001 0.36500001 0
4.1020002 3.7950001 0.36199999 0
4.0450001 3.766 0.36000001 0
3.954 3.7049999 0.35800001 0
3.878 3.6459999 0.35499999 0
3.799 3.595 0.352 0
3.7179999 3.5409999 0.34999999 0
3.6470001 3.497 0.347 0
3.5680001 3.4430001 0.345 0
3.4979999 3.398 0.34299999 0
3.4260001 3.349 0.34 0.090000004
3.382 3.3169999 0.33899999 0.22
3.3889999 3.3440001 0.33899999 0.34
3.358 3.335 0.33899999 0
3.3429999 3.3410001 0.33899999 0
7.7119999 7.757 0.509 0.22
7.691 7.7839999 0.509 0.31999999
7.6830001 7.8000002 0.509 0.34
7.6680002 7.8340001 0.50999999 0.31999999
7.6490002 7.8639998 0.50999999 0.31999999
7.6230001 7.8860002 0.50999999 0.31999999
7.6090002 7.9219999 0.50999999 0.33000001
7.5830002 7.9439998 0.50999999 0.31999999
7.5799999 7.9660001 0.51099998 0.34
7.559 7.994 0.51099998 0.31999999
7.5409999 8.0249996 0.51099998 0.31999999
7.5209999 8.0550003 0.51099998 0.31999999
7.4980001 8.0810003 0.51200002 0.31
7.48 8.1120005 0.51200002 0.31999999
7.4710002 8.1529999 0.51200002 0.33000001
7.454 8.1610003 0.51200002 0.31999999
7.4320002 8.1879997 0.51200002 0.31999999
7.414 8.2209997 0.51300001 0.31
7.3979998 8.2539997 0.51300001 0.34
7.3829999 8.2889996 0.514 0.34
7.3540001 8.3100004 0.514 0.30000001
7.3400002 8.3459997 0.514 0.31
7.3330002 8.3649998 0.514 0.31
7.3049998 8.3870001 0.514 0.30000001
7.2989998 8.4320002 0.51499999 0.34
5.8470001 6.8060002 0.45500001 0.31
5.8210001 6.8179998 0.45500001 0.33000001
5.7810001 6.8150001 0.454 0.2
5.7600002 6.8340001 0.454 0.40000001
7.197 8.5559998 0.51599997 0.25
7.1900001 8.6029997 0.51700002 0.40000001
5.7930002 6.9829998 0.458 0.12
7.1659999 8.6829996 0.51800001 0.18000001
7.1370001 8.7040005 0.51800001 0.56999999
7.1030002 8.7189999 0.51800001 0.37
5.3039999 6.5619998 0.44 0.22
5.2909999 6.5669999 0.44 0.38999999
5.27 6.5840001 0.44 0.34
6.7670002 8.4969997 0.50700003 0.36000001
6.677 8.4379997 0.50400001 0.30000001
6.612 8.4110003 0.50300002 0.55000001
6.5100002 8.335 0.49900001 0.23
4.9099998 6.3579998 0.42899999 0.57999998
6.2800002 8.1730003 0.49200001 0.28
6.2189999 8.1459999 0.49000001 0.49000001
4.6090002 6.1279998 0.419 0.38999999
5.9829998 7.994 0.48300001 0.14
4.4320002 5.9530001 0.41299999 0.19
5.8709998 7.9219999 0.47999999 0.23999999
4.3150001 5.8730001 0.40900001 0.46000001
5.73 7.835 0.47499999 0.47999999
5.073 6.9879999 0.44600001 0.19
5.5879998 7.743 0.47099999 0.34999999
5.5430002 7.7069998 0.46900001 0.33000001
5.473 7.6609998 0.46700001 0.31
5.4200001 7.6370001 0.46599999 0.54000002
5.335 7.5679998 0.463 0.15000001
5.2789998 7.539 0.46200001 0.34
5.2140002 7.4959998 0.46000001 0.36000001
5.1539998 7.46 0.458 0.43000001
4.9949999 7.256 0.45100001 0.28999999
5.0409999 7.3720002 0.454 0.38
4.973 7.322 0.45199999 0.28
4.9229999 7.2979999 0.45100001 0.36000001
4.868 7.2649999 0.449 0.34999999
4.803 7.217 0.447 0.34
4.7480001 7.184 0.44499999 0.34
4.7020001 7.1399999 0.44400001 0.36000001
4.6500001 7.1100001 0.442 0.36000001
4.5840001 7.0570002 0.44 0.27000001
4.4580002 6.9120002 0.435 0.47999999
4.4759998 6.987 0.43700001 0.36000001
4.4299998 6.9640002 0.435 0.38
4.375 6.9250002 0.43399999 0.33000001
4.3379998 6.8920002 0.43200001 0.34999999
4.2909999 6.8649998 0.43099999 0.36000001
4.23 6.8150001 0.42899999 0.34
4.198 6.8119998 0.428 0.38
4.1329999 6.7529998 0.426 0.31
4.1030002 6.7529998 0.426 0.23
3.862 6.4029999 0.414 0.5
4.0190001 6.6859999 0.42300001 0.34999999
3.974 6.658 0.42199999 0.34
3.9300001 6.6329999 0.41999999 0.34
3.8889999 6.6100001 0.419 0.34999999
3.845 6.5830002 0.41800001 0.37
3.8039999 6.5609999 0.417 0.36000001
3.7679999 6.5229998 0.41600001 0.36000001
3.724 6.494 0.414 0.36000001
3.6830001 6.4689999 0.41299999 0.34999999
3.641 6.4419999 0.412 0.34999999
3.6040001 6.4239998 0.41100001 0.34999999
3.5580001 6.3899999 0.41 0.34
3.5239999 6.3769999 0.40900001 0.34
3.4949999 6.3470001 0.40799999 0.34
3.4530001 6.3179998 0.40599999 0.34
3.414 6.2940001 0.405 0.34999999
3.3789999 6.2779999 0.405 0.34
3.3369999 6.2459998 0.403 0.33000001
3.302 6.2290001 0.40200001 0.34
3.267 6.2090001 0.40099999 0.34
3.2390001 6.1799998 0.40000001 0.38
3.2030001 6.1589999 0.39899999 0.30000001
3.168 6.1389999 0.398 0.33000001
3.1289999 6.1110001 0.39700001 0.33000001
3.0999999 6.1009998 0.39700001 0.38
3.0610001 6.072 0.39500001 0.28999999
3.023 6.0440001 0.39399999 0.31999999
3.0020001 6.026 0.39399999 0.36000001
2.9690001 6.006 0.39300001 0.34
2.9400001 5.9959998 0.39199999 0.37
2.892 5.9460001 0.38999999 0.31
2.8540001 5.915 0.389 0.31
2.8039999 5.8600001 0.38699999 0.19
2.7850001 5.8439999 0.38699999 0.44999999
2.7449999 5.8060002 0.38499999 0.22
2.6989999 5.757 0.38299999 0.23
2.6570001 5.7150002 0.382 0.18000001
2.628 5.6989999 0.38100001 0.28999999
2.598 5.6820002 0.38 0.18000001
2.5669999 5.6609998 0.37900001 0.18000001
2.5450001 5.6360002 0.37900001 0.16
2.5220001 5.631 0.37799999 0.090000004
2.4990001 5.6279998 0.37799999 0
2.454 5.5760002 0.37599999 0
2.4189999 5.5430002 0.375 0
2.398 5.5440001 0.375 0
2.3670001 5.52 0.37400001 0
2.349 5.5019999 0.373 0
2.326 5.494 0.373 0
2.299 5.4790001 0.37200001 0
2.2690001 5.4549999 0.37099999 0
2.2420001 5.4400001 0.37 0
2.217 5.4289999 0.37 0
2.1949999 5.4229999 0.36899999 0
2.175 5.3969998 0.36899999 0
2.152 5.3899999 0.368 0
2.1240001 5.369 0.36700001 0
2.098 5.3520002 0.36700001 0
2.075 5.3439999 0.366 0
2.0580001 5.348 0.366 0
2.0280001 5.323 0.36500001 0
2.0109999 5.302 0.36399999 0
1.997 5.316 0.36500001 0
1.9630001 5.2750001 0.36300001 0
1.942 5.27 0.36300001 0
3 8.2589998 0.44999999 0.13
2.993 8.2810001 0.45100001 0.40000001
2.9749999 8.3109999 0.45100001 0.41
26.716 -58.540001 1.977 0
27.525 -59.816002 2.0179999 0
28.278 -61.200001 2.0610001 0
29.157 -62.585999 2.1059999 0
30.087999 -64.059998 2.1530001 0
42.533001 32.882 1.433 0
42.483002 32.950001 1.433 0.07
8.2279997 6.4380002 0.44600001 0
8.1230001 6.3969998 0.44400001 0
7.8559999 6.2259998 0.43700001 0
7.6020002 6.0630002 0.43000001 0
7.3769999 5.901 0.42300001 0
7.1539998 5.7589998 0.417 0
6.9819999 5.6560001 0.41299999 0
6.8099999 5.5510001 0.40799999 0
6.6599998 5.4629998 0.40400001 0
6.5040002 5.369 0.40000001 0
6.355 5.2789998 0.396 0
6.2210002 5.184 0.39300001 0
6.0830002 5.0999999 0.389 0
5.9450002 5.0159998 0.38499999 0
5.7950001 4.9200001 0.38100001 0
5.6690001 4.8429999 0.37799999 0
5.5300002 4.7529998 0.37400001 0
5.402 4.6570001 0.37099999 0
5.2820001 4.5819998 0.368 0
5.158 4.5019999 0.36399999 0
5.0339999 4.4219999 0.361 0
4.9369998 4.3629999 0.35800001 0
4.8169999 4.2839999 0.35499999 0
4.7090001 4.2129998 0.352 0
4.6040001 4.132 0.34900001 0
4.5 4.0630002 0.34599999 0
4.3909998 3.9890001 0.34299999 0
4.3049998 3.9349999 0.34099999 0
4.2340002 3.8940001 0.33899999 0
4.1539998 3.845 0.33700001 0
4.0710001 3.7909999 0.33500001 0
3.9909999 3.727 0.333 0
3.925 3.6889999 0.331 0
3.8269999 3.618 0.32800001 0
3.7520001 3.569 0.32600001 0.079999998
3.691 3.5320001 0.32499999 0.079999998
3.6159999 3.4820001 0.32300001 0.079999998
3.5680001 3.4460001 0.32100001 0.079999998
3.5020001 3.4030001 0.31900001 0.14
3.444 3.3670001 0.31799999 0.12
3.3889999 3.3340001 0.317 0.18000001
3.3659999 3.332 0.31600001 0.43000001
3.5050001 3.493 0.32100001 0
3.3269999 3.335 0.31600001 0.059999999
3.329 3.3469999 0.31600001 0.07
7.6869998 7.8280001 0.458 0.28
7.671 7.8600001 0.458 0.34
7.6469998 7.8860002 0.458 0.28
7.6300001 7.9169998 0.45899999 0.31
7.6020002 7.9380002 0.45899999 0.34999999
7.5890002 7.9749999 0.45899999 0.34
7.5819998 7.993 0.45899999 0.34999999
7.5609999 8.0209999 0.45899999 0.28999999
7.5500002 8.059 0.46000001 0.33000001
7.5240002 8.0830002 0.46000001 0.31999999
7.507 8.1149998 0.46000001 0.31999999
7.4980001 8.1569996 0.461 0.31999999
7.461 8.1680002 0.46000001 0.31999999
7.4619999 8.1949997 0.461 0.31999999
7.4369998 8.2200003 0.461 0.30000001
7.421 8.2539997 0.461 0.31
7.4000001 8.283 0.461 0.31
7.3850002 8.3179998 0.46200001 0.31
7.3590002 8.3409996 0.46200001 0.30000001
7.3400002 8.3730001 0.46200001 0.31
7.3309999 8.3889999 0.46200001 0.31
7.3080001 8.4169998 0.46200001 0.28
7.4549999 8.6409998 0.46799999 0
5.849 6.8140001 0.41299999 0.050000001
5.8520002 6.8610001 0.414 0.15000001
5.7550001 6.7909999 0.41100001 0.2
5.7290001 6.7810001 0.41 0.34
5.6960001 6.7859998 0.41 0.28
5.6599998 6.7849998 0.41 0.20999999
7.1719999 8.7200003 0.465 0.60000002
5.467 6.6799998 0.405 0.33000001
5.3850002 6.6220002 0.403 0.25
5.4089999 6.6729999 0.40400001 0.2
5.3080001 6.5900002 0.40099999 0.27000001
5.277 6.5939999 0.40099999 0.30000001
6.7480001 8.4980001 0.45500001 0.28
6.671 8.4540005 0.454 0.23999999
6.5180001 8.3149996 0.449 0.56
6.4970002 8.3140001 0.449 0.11
5.25 6.7529998 0.403 0.11
5.0570002 6.5890002 0.39700001 0.57999998
6.2030001 8.1459999 0.44100001 0.23
5.9699998 7.9419999 0.435 0.36000001
4.678 6.2340002 0.38600001 0.12
5.9400001 7.9790001 0.435 0.23
5.8790002 7.9499998 0.433 0.44999999
4.461 6.1009998 0.38 0.38999999
5.6090002 7.7340002 0.426 0.11
5.5999999 7.7719998 0.426 0.30000001
5.5450001 7.723 0.42500001 0.38
5.4819999 7.6849999 0.42300001 0.30000001
5.428 7.6589999 0.42199999 0.43000001
5.349 7.598 0.41999999 0.20999999
5.2849998 7.5570002 0.41800001 0.31
5.2290001 7.527 0.417 0.30000001
5.1750002 7.4990001 0.41600001 0.38999999
5.0180001 7.2940001 0.41 0.33000001
5.0419998 7.3800001 0.412 0.34
4.9770002 7.3340001 0.41 0.20999999
4.9400001 7.3280001 0.41 0.36000001
4.8790002 7.2870002 0.40799999 0.34
4.829 7.2610002 0.40700001 0.27000001
4.7670002 7.217 0.405 0.34999999
4.7270002 7.1799998 0.40400001 0.33000001
4.6700001 7.1420002 0.403 0.28999999
4.6259999 7.1230001 0.40200001 0.17
4.4590001 6.9120002 0.396 0.54000002
4.5040002 7.0310001 0.398 0.34
4.4000001 6.915 0.39500001 0.34
4.4169998 6.967 0.396 0.34999999
4.3169999 6.8559999 0.39300001 0.27000001
4.3239999 6.915 0.39399999 0.38999999
4.2080002 6.776 0.38999999 0.23
4.2210002 6.8449998 0.391 0.40000001
4.112 6.7150002 0.38800001 0.27000001
4.125 6.7839999 0.389 0.34
3.9289999 6.4819999 0.38100001 0.34
3.96 6.5799999 0.38299999 0.31
4 6.6960001 0.38600001 0.34
3.957 6.671 0.38499999 0.34999999
3.9130001 6.6430001 0.384 0.34
3.8710001 6.619 0.38299999 0.28999999
3.8269999 6.5910001 0.382 0.36000001
3.793 6.5560002 0.38100001 0.34
3.7509999 6.5310001 0.38 0.34999999
3.7079999 6.5029998 0.37900001 0.30000001
3.671 6.4850001 0.37799999 0.37
3.6300001 6.46 0.377 0.34
3.5910001 6.4359999 0.37599999 0.34
3.5469999 6.4050002 0.375 0.28999999
3.523 6.3850002 0.37400001 0.36000001
3.48 6.3530002 0.373 0.28999999
3.447 6.3400002 0.373 0.38
3.3640001 6.2340002 0.37 0
3.253 6.072 0.36500001 0
3.2179999 6.052 0.36399999 0
3.1919999 6.0250001 0.36399999 0
3.155 6.0009999 0.36300001 0
3.1210001 5.9809999 0.36199999 0
3.0929999 5.973 0.361 0
3.063 5.961 0.361 0
3.03 5.9419999 0.36000001 0
2.9960001 5.921 0.359 0
2.974 5.901 0.359 0
2.9389999 5.8759999 0.35800001 0
2.911 5.8660002 0.35699999 0
2.8740001 5.8369999 0.35600001 0
2.846 5.8260002 0.35600001 0
2.816 5.8099999 0.35499999 0
2.7880001 5.7989998 0.35499999 0
2.7650001 5.7740002 0.354 0
2.7379999 5.7649999 0.354 0
2.7049999 5.7410002 0.35299999 0
2.6719999 5.717 0.352 0
2.645 5.7049999 0.35100001 0
2.615 5.6880002 0.35100001 0
2.5840001 5.6669998 0.34999999 0
2.5699999 5.658 0.34999999 0
2.5380001 5.6350002 0.34900001 0
2.5050001 5.6079998 0.34799999 0
2.4779999 5.5939999 0.34799999 0
2.451 5.5799999 0.347 0
2.4219999 5.5619998 0.34599999 0
2.3959999 5.5489998 0.34599999 0
2.3759999 5.527 0.345 0
2.3529999 5.52 0.345 0
2.322 5.4959998 0.34400001 0
2.296 5.4829998 0.34400001 0
2.267 5.46 0.34299999 0
2.2449999 5.4549999 0.34299999 0
2.221 5.421 0.34200001 0
2.1989999 5.415 0.34099999 0
2.177 5.4089999 0.34099999 0
2.1459999 5.382 0.34 0
2.119 5.3610001 0.34 0
2.0969999 5.3559999 0.33899999 0
2.0710001 5.3369999 0.33899999 0
2.0550001 5.3210001 0.338 0
2.0320001 5.3109999 0.338 0
1.998 5.2719998 0.33700001 0
1.9809999 5.277 0.33700001 0
1.9630001 5.2789998 0.33700001 0.12
1.937 5.2589998 0.336 0.16
1.9170001 5.2540002 0.336 0.18000001
1.91 5.2620001 0.336 0.12
1.901 5.289 0.336 0.16
1.887 5.303 0.336 0.12
27.075001 -58.967999 1.686 0
27.908001 -60.279999 1.721 0
28.761999 -61.616001 1.757 0
29.565001 -63.075001 1.795 0
30.51 -64.560997 1.835 0
46.977001 35.591 1.104 0
9.415 7.2529998 0.38800001 0
9.0749998 7.0609999 0.38299999 0
8.3500004 6.5409999 0.36899999 0
8.0109997 6.3179998 0.36300001 0
7.7280002 6.1350002 0.35800001 0
7.4920001 5.987 0.354 0
7.25 5.8319998 0.34900001 0
7.0430002 5.684 0.345 0
6.8569999 5.5710001 0.34200001 0
6.658 5.4450002 0.33899999 0
6.5079999 5.3569999 0.336 0
6.3520002 5.263 0.333 0
6.1810002 5.1550002 0.33000001 0
3.3540001 3.2909999 0.27900001 0
3.342 3.3010001 0.27900001 0
3.3269999 3.296 0.27900001 0
7.6929998 7.7649999 0.37400001 0.16
7.6820002 7.8039999 0.37400001 0.43000001
7.6529999 7.823 0.37400001 0.25
7.6399999 7.8340001 0.37400001 0.16
7.6389999 7.882 0.375 0.41999999
7.6079998 7.901 0.375 0.25
7.5929999 7.934 0.375 0.25
7.5700002 7.96 0.375 0.25
7.5469999 7.9860001 0.375 0.19
7.5469999 8.0360003 0.375 0.41
7.5190001 8.0319996 0.375 0.23999999
7.5009999 8.0629997 0.375 0.19
7.4879999 8.1000004 0.375 0.40000001
7.4650002 8.1260004 0.37599999 0.23999999
7.441 8.151 0.37599999 0.19
7.434 8.1949997 0.37599999 0.40000001
7.4159999 8.2010002 0.37599999 0.23
7.3899999 8.224 0.37599999 0.19
7.3870001 8.2720003 0.37599999 0.41
7.3530002 8.2869997 0.37599999 0.23
7.3330002 8.3170004 0.37599999 0.18000001
7.3280001 8.3640003 0.377 0.41
7.2909999 8.375 0.377 0.23
7.29 8.3999996 0.377 0.18000001
7.2729998 8.434 0.377 0.16
7.2410002 8.5030003 0.37799999 0.38999999
7.2140002 8.526 0.37799999 0.23
7.197 8.5609999 0.37799999 0.2
7.2069998 8.6000004 0.37799999 0
7.1370001 8.6269999 0.37799999 0.13
7.1350002 8.6780005 0.37900001 0.28
7.1100001 8.7040005 0.37900001 0.62
7.1760001 8.8409996 0.38100001 0
5.2659998 6.5609999 0.336 0.12
5.2329998 6.5619998 0.33500001 0.14
6.7340002 8.4870005 0.373 0.31
6.6430001 8.427 0.37099999 0.28999999
6.467 8.2580004 0.36700001 0
5.3039999 6.8239999 0.33899999 0
5.0250001 6.5089998 0.333 0
4.8889999 6.3559999 0.33000001 0.11
6.243 8.1560001 0.36399999 0.12
6.165 8.1070004 0.36300001 0.079999998
6.0170002 7.9650002 0.36000001 0
5.1440001 6.8600001 0.338 0.090000004
5.9380002 7.9650002 0.359 0.13
5.8400002 7.8850002 0.35699999 0
4.303 5.8410001 0.31799999 0.12
5.757 7.8499999 0.35600001 0.18000001
5.6890001 7.8099999 0.35499999 0.16
5.6069999 7.7490001 0.35299999 0.20999999
5.559 7.7340002 0.35299999 0.27000001
5.4970002 7.698 0.352 0.23
5.4289999 7.6550002 0.34999999 0.28
5.3730001 7.6009998 0.34900001 0.20999999
5.303 7.553 0.34799999 0.30000001
5.2420001 7.5149999 0.347 0.19
5.1849999 7.4840002 0.34599999 0.38
5.1209998 7.4429998 0.345 0.18000001
5.0549998 7.3959999 0.34400001 0.15000001
4.9489999 7.316 0.34200001 0.30000001
4.8889999 7.277 0.34099999 0.2
4.8309999 7.2389998 0.34 0.20999999
4.7680001 7.1939998 0.33899999 0.17
4.7119999 7.1589999 0.338 0.13
4.6560001 7.1220002 0.33700001 0.16
4.6090002 7.0760002 0.336 0.28999999
4.4380002 6.8610001 0.33199999 0.23
4.5 7.0040002 0.33399999 0.27000001
4.4169998 6.9239998 0.333 0.27000001
4.3940001 6.9359999 0.333 0.11
4.3260002 6.8769999 0.331 0.15000001
4.2930002 6.8720002 0.331 0.1
4.2179999 6.777 0.329 0.079999998
4.21 6.8109999 0.329 0
4.1139998 6.7030001 0.32699999 0.12
4.0970001 6.723 0.32699999 0.090000004
3.862 6.3860002 0.32100001 0
3.9909999 6.6440001 0.32600001 0
3.9690001 6.6550002 0.32600001 0
3.938 6.6269999 0.32499999 0
3.8889999 6.5910001 0.324 0
3.846 6.5650001 0.32300001 0
3.8080001 6.5479999 0.32300001 0
3.7590001 6.5120001 0.322 0
3.737 6.52 0.322 0
3.688 6.4580002 0.32100001 0
3.6559999 6.4510002 0.31999999 0
3.6210001 6.4359999 0.31999999 0
3.582 6.414 0.31900001 0
3.5239999 6.3569999 0.31799999 0
3.487 6.3369999 0.31799999 0
3.434 6.2880001 0.317 0
3.332 6.125 0.31400001 0
3.013 5.8239999 0.30700001 0
2.9890001 5.8210001 0.30700001 0
2.938 5.8109999 0.30700001 0
2.892 5.7659998 0.30599999 0
2.8829999 5.7930002 0.30599999 0
2.825 5.7220001 0.30500001 0
2.79 5.6739998 0.30399999 0
2.5869999 5.5469999 0.301 0
2.099 5.2880001 0.294 0
2.0899999 5.3130002 0.29499999 0
2.0599999 5.2859998 0.294 0
2.046 5.2979999 0.294 0
2.0239999 5.2909999 0.294 0
1.999 5.2750001 0.294 0
1.97 5.25 0.29300001 0
1.9450001 5.2080002 0.292 0
1.933 5.2249999 0.292 0
1.918 5.2350001 0.29300001 0
1.914 5.2750001 0.29300001 0
1.895 5.2750001 0.29300001 0
1.885 5.3000002 0.29300001 0
1.8660001 5.2979999 0.29300001 0
11.309 -26.700001 0.64899999 0
11.459 -26.820999 0.65100002 0.12
14.563 -33.810001 0.76800001 0.20999999
14.656 -33.733002 0.76700002 0.2
14.754 -33.668999 0.76700002 0.28999999
14.86 -33.622002 0.76700002 0.47999999
14.964 -33.573002 0.76700002 0.27000001
15.006 -33.523998 0.76599997 0.34
15.105 -33.464001 0.76599997 0.2
15.208 -33.410999 0.76599997 0.23
15.307 -33.351002 0.76599997 0.20999999
15.398 -33.272999 0.76499999 0
15.504 -33.228001 0.76599997 0.15000001
30.066 -64.231003 1.2869999 0
30.421 -64.461998 1.2920001 0
32.582001 -68.486 1.3609999 0
32.792999 -68.374001 1.3609999 0
33.474998 -68.688004 1.37 0
47.092999 35.457001 0.80299997 0
9.5120001 7.1830001 0.32800001 0
9.5010004 7.2210002 0.32800001 0
9.3669996 7.1659999 0.32600001 0
9.3570004 7.2049999 0.32699999 0.079999998
42.502998 32.950001 0.75099999 0.2
8.302 6.493 0.31400001 0.18000001
8.0570002 6.342 0.31099999 0.14
7.8039999 6.1810002 0.308 0.22
7.566 6.0310001 0.30500001 0.11
7.329 5.8790002 0.30199999 0.15000001
7.1350002 5.7410002 0.30000001 0.30000001
6.9460001 5.6240001 0.29800001 0.19
6.7909999 5.533 0.296 0.34
6.6269999 5.4330001 0.294 0.23
6.4710002 5.3390002 0.292 0.20999999
6.335 5.2589998 0.28999999 0.37
6.2059999 5.1680002 0.289 0.22
6.0609999 5.079 0.287 0.25
5.9260001 4.9970002 0.28600001 0.20999999
5.796 4.9180002 0.28400001 0.20999999
5.6440001 4.8189998 0.28200001 0.2
5.526 4.7480001 0.28099999 0.31
5.3979998 4.6669998 0.27900001 0.2
5.27 4.5700002 0.278 0.18000001
5.1389999 4.4829998 0.27599999 0.18000001
5.026 4.4120002 0.27500001 0.17
4.901 4.329 0.273 0.17
4.7950001 4.2620001 0.27200001 0.16
4.6939998 4.198 0.271 0.17
4.5910001 4.118 0.27000001 0.1
4.4850001 4.0479999 0.26800001 0.15000001
4.3829999 3.9790001 0.26699999 0.090000004
4.2969999 3.925 0.266 0
4.2020001 3.8629999 0.26499999 0
4.1300001 3.8199999 0.264 0
4.0679998 3.786 0.26300001 0
3.977 3.7119999 0.26199999 0
3.9000001 3.6619999 0.26100001 0
3.829 3.618 0.26100001 0
3.757 3.572 0.25999999 0
3.684 3.5239999 0.259 0
3.625 3.4890001 0.25799999 0
3.5599999 3.448 0.257 0
3.4960001 3.3959999 0.257 0
3.4200001 3.342 0.25600001 0.11
3.3770001 3.3199999 0.255 0.14
3.3469999 3.3110001 0.255 0.38999999
3.336 3.322 0.255 0
3.3169999 3.3239999 0.255 0.1
7.6989999 7.836 0.31799999 0.34999999
7.6690001 7.855 0.31799999 0.37
7.651 7.8860002 0.31799999 0.34
7.6440001 7.9289999 0.31900001 0.38999999
7.6110001 7.9439998 0.31799999 0.36000001
7.5939999 7.9759998 0.31900001 0.36000001
7.5890002 7.9959998 0.31900001 0.36000001
7.5609999 8.0170002 0.31900001 0.36000001
7.5450001 8.0500002 0.31900001 0.36000001
7.5320001 8.0869999 0.31900001 0.34
7.5079999 8.1120005 0.31900001 0.36000001
7.4860001 8.1400003 0.31900001 0.36000001
7.4689999 8.1730003 0.31900001 0.34
7.4689999 8.1990004 0.31900001 0.36000001
7.441 8.2200003 0.31900001 0.36000001
7.4229999 8.2519999 0.31900001 0.38
7.3959999 8.2740002 0.31900001 0.31999999
7.3829999 8.3120003 0.31999999 0.34
7.3660002 8.3459997 0.31999999 0.38
7.3559999 8.3599997 0.31999999 0.33000001
7.3319998 8.3859997 0.31999999 0.34
7.3130002 8.4180002 0.31999999 0.34
7.296 8.4519997 0.31999999 0.47
5.8899999 6.8600001 0.29899999 0.2
7.2620001 8.5209999 0.31999999 0.28999999
7.2389998 8.5480003 0.31999999 0.34
7.2179999 8.5500002 0.31999999 0.34
7.2210002 8.6079998 0.32100001 0.47999999
7.1760001 8.6090002 0.32100001 0.23
7.178 8.724 0.32100001 0.58999997
7.1409998 8.7340002 0.32100001 0.69
7.145 8.7950001 0.322 0.69999999
7.0370002 8.6890001 0.31999999 0.41
5.4619999 6.7789998 0.29499999 0.18000001
6.8460002 8.5629997 0.31799999 0.28999999
6.7589998 8.507 0.317 0.40000001
6.678 8.4589996 0.31600001 0.37
6.598 8.4130001 0.315 0.57999998
5.7020001 7.2880001 0.301 0.23999999
4.9310002 6.3800001 0.289 0.58999997
6.2880001 8.1999998 0.31200001 0.28999999
6.2059999 8.1450005 0.31099999 0.56999999
4.6880002 6.1830001 0.28600001 0.22
6.0689998 8.0699997 0.30899999 0.43000001
5.9910002 7.9910002 0.308 0.23999999
5.941 7.9759998 0.308 0.27000001
5.882 7.9499998 0.30700001 0.30000001
4.349 5.9050002 0.28099999 0.62
5.7379999 7.8569999 0.30599999 0.56999999
5.6259999 7.8049998 0.30500001 0.31999999
5.5599999 7.7389998 0.30399999 0.51999998
5.4959998 7.7010002 0.303 0.33000001
5.4180002 7.6420002 0.30199999 0.63
5.2909999 7.5619998 0.301 0.51999998
5.197 7.4770002 0.29899999 0.50999999
5.0900002 7.3709998 0.29800001 0.16
5.0700002 7.368 0.29800001 0.16
5.0209999 7.3449998 0.29699999 0.27000001
5.0040002 7.369 0.29699999 0.5
4.96 7.355 0.29699999 0.31999999
4.8909998 7.3010001 0.296 0.50999999
4.8410001 7.276 0.296 0.31999999
4.7729998 7.223 0.29499999 0.51999998
4.7379999 7.1929998 0.294 0.34
4.6729999 7.1430001 0.294 0.54000002
4.6290002 7.1240001 0.29300001 0.31
4.4850001 6.9499998 0.29100001 0.44999999
4.5149999 7.0450001 0.292 0.50999999
4.4530001 6.9959998 0.29100001 0.33000001
4.4320002 6.987 0.29100001 0.44999999
4.381 6.9549999 0.28999999 0.34
4.3309999 6.9219999 0.28999999 0.46000001
4.2329998 6.8140001 0.28799999 0.38999999
4.243 6.8779998 0.289 0.34999999
4.1269999 6.7360001 0.287 0.55000001
4.1139998 6.7620001 0.287 0.5
3.8710001 6.382 0.28299999 0.23999999
4.0479999 6.7249999 0.287 0.18000001
4.0240002 6.7329998 0.287 0.34
3.9690001 6.6869998 0.28600001 0.50999999
3.938 6.6830001 0.28600001 0.34
3.888 6.6459999 0.285 0.44999999
3.855 6.612 0.285 0.43000001
3.8180001 6.5960002 0.28400001 0.34
3.7690001 6.5580001 0.28400001 0.47999999
3.727 6.533 0.28299999 0.36000001
3.6800001 6.4980001 0.28299999 0.55000001
3.6459999 6.4850001 0.28200001 0.34
3.6010001 6.4510002 0.28200001 0.46000001
3.5799999 6.4369998 0.28200001 0.34
3.5309999 6.3959999 0.28099999 0.47
3.484 6.3579998 0.28099999 0.58999997
3.3069999 6.0760002 0.27700001 0.20999999
3.263 6.0409999 0.27700001 0.2
3.234 6.0320001 0.27599999 0.28
3.1989999 6.0120001 0.27599999 0.27000001
3.175 5.9899998 0.27599999 0.27000001
3.1359999 5.961 0.27500001 0.25999999
3.102 5.941 0.27500001 0.25999999
3.0710001 5.927 0.27500001 0.25999999
3.0369999 5.9070001 0.27399999 0.25
2.9990001 5.8769999 0.27399999 0.25
2.9790001 5.8829999 0.27399999 0.25999999
2.951 5.8509998 0.27399999 0.25
2.9119999 5.8179998 0.273 0.25
2.8840001 5.8070002 0.273 0.11
2.8540001 5.7930002 0.273 0
2.8199999 5.7690001 0.27200001 0
2.7850001 5.7420001 0.27200001 0
2.7609999 5.7379999 0.27200001 0
2.744 5.7259998 0.271 0
2.7 5.6810002 0.271 0
2.668 5.658 0.271 0
2.6500001 5.6669998 0.271 0
2.6170001 5.6399999 0.27000001 0
2.592 5.6339998 0.27000001 0
2.5829999 5.638 0.27000001 0
2.5380001 5.5840001 0.26899999 0
2.5079999 5.5650001 0.26899999 0
2.4990001 5.5910001 0.26899999 0
2.454 5.5359998 0.26800001 0
2.438 5.5479999 0.26899999 0
2.402 5.5110002 0.26800001 0
2.3940001 5.5170002 0.26800001 0
2.358 5.4819999 0.26800001 0
2.3380001 5.4819999 0.26800001 0
2.3050001 5.4499998 0.26699999 0
2.279 5.4369998 0.26699999 0
2.2479999 5.4089999 0.266 0
2.237 5.4330001 0.26699999 0
2.22 5.414 0.266 0
2.1819999 5.369 0.266 0
2.1670001 5.382 0.266 0
2.1359999 5.3530002 0.266 0
2.115 5.349 0.26499999 0
2.0840001 5.3179998 0.26499999 0
2.0639999 5.3169999 0.26499999 0
2.046 5.2940001 0.26499999 0
2.0139999 5.2589998 0.264 0
1.99 5.2470002 0.264 0.07
1.9680001 5.2379999 0.264 0.12
1.941 5.2140002 0.264 0.25
1.921 5.211 0.26300001 0
1.9170001 5.2249999 0.264 0
1.908 5.2519999 0.264 0
1.895 5.2670002 0.264 0
1.88 5.2789998 0.264 0.13
1.874 5.3150001 0.264 0.12
11.191 -26.479 0.498 0
11.425 -26.799 0.50199997 0
14.614 -33.964001 0.58099997 0
14.887 -33.720001 0.57999998 0
24.643 -55.305 0.81900001 0
15.039 -33.632999 0.57999998 0.090000004
15.131 -33.556 0.579 0.11
15.227 -33.488998 0.579 0
15.401 -33.313999 0.57800001 0
29.987 -64.276001 0.92400002 0
30.184 -64.434998 0.926 0
32.632 -68.531998 0.97399998 0
47.097 35.405998 0.39300001 0
9.3809996 7.1240001 0.244 0
9.2779999 7.1389999 0.244 0
42.463001 32.769001 0.37599999 0.090000004
42.411999 32.835999 0.37599999 0
8.1879997 6.4070001 0.23999999 0
7.8709998 6.1999998 0.23800001 0
7.5840001 6.0139999 0.237 0
7.3319998 5.8530002 0.236 0
7.1149998 5.717 0.236 0
6.9050002 5.585 0.235 0
6.7360001 5.467 0.234 0
6.5539999 5.3540001 0.233 0
6.4000001 5.2620001 0.233 0
6.2350001 5.1599998 0.23199999 0
6.092 5.0749998 0.23199999 0
5.9530001 4.9920001 0.23100001 0
5.8210001 4.8979998 0.23100001 0
5.6799998 4.8099999 0.23 0
5.5339999 4.717 0.23 0
5.3990002 4.632 0.229 0
5.2470002 4.5320001 0.229 0
5.1440001 4.4710002 0.228 0
5.006 4.3800001 0.228 0
4.8870001 4.29 0.227 0
4.7529998 4.1999998 0.227 0
4.638 4.125 0.226 0
4.5180001 4.0440001 0.226 0
4.3720002 3.9400001 0.22499999 0
4.309 3.908 0.22499999 0
4.2090001 3.842 0.22499999 0
4.138 3.79 0.22400001 0
4.0489998 3.733 0.22400001 0
3.9519999 3.6670001 0.22400001 0
3.8640001 3.609 0.223 0
3.806 3.5769999 0.223 0
3.7119999 3.5109999 0.223 0
3.631 3.457 0.223 0
3.5829999 3.4230001 0.222 0
3.4909999 3.3570001 0.222 0
3.4289999 3.3180001 0.222 0
3.368 3.28 0.222 0.050000001
3.2839999 3.22 0.221 0.16
3.2809999 3.237 0.221 0.20999999
3.273 3.24 0.221 0
3.2360001 3.223 0.221 0
3.2490001 3.256 0.221 0
7.6259999 7.6890001 0.241 0.23
7.6100001 7.7220001 0.241 0.30000001
7.5949998 7.7550001 0.241 0.28999999
7.5819998 7.7659998 0.241 0.28
7.5599999 7.7930002 0.241 0.28999999
7.5500002 7.8309999 0.241 0.28999999
7.5209999 7.8499999 0.241 0.28999999
7.4980001 7.875 0.241 0.28999999
7.487 7.9130001 0.241 0.28999999
7.48 7.9310002 0.241 0.28
7.4489999 7.948 0.241 0.30000001
7.4310002 7.9790001 0.241 0.28999999
7.4109998 8.0080004 0.241 0.27000001
7.3959999 8.0419998 0.241 0.28
7.3839998 8.0790005 0.241 0.30000001
7.3649998 8.1099997 0.241 0.28999999
7.3509998 8.1199999 0.241 0.27000001
7.336 8.1549997 0.241 0.28
7.309 8.177 0.241 0.27000001
7.296 8.2130003 0.241 0.28
7.2779999 8.2449999 0.241 0.27000001
7.2459998 8.2620001 0.241 0.27000001
7.2389998 8.3050003 0.242 0.27000001
7.223 8.3140001 0.242 0.25
7.2350001 8.3800001 0.242 0
7.1919999 8.3830004 0.242 0.090000004
7.1729999 8.415 0.242 0.27000001
7.1529999 8.4449997 0.242 0.28
7.1269999 8.467 0.242 0.2
7.112 8.4770002 0.242 0.31
5.75 6.9050002 0.235 0.11
7.0939999 8.5649996 0.242 0.14
7.0780001 8.599 0.242 0.33000001
7.0479999 8.618 0.242 0.63
7.1469998 8.7950001 0.243 0.19
5.6430001 6.9970002 0.235 0.079999998
6.737 8.427 0.241 0.31
6.6500001 8.3719997 0.241 0.23
6.5339999 8.2799997 0.23999999 0.52999997
5.6199999 7.1739998 0.236 0.11
5.0190001 6.494 0.233 0
4.789 6.2189999 0.23199999 0
4.6490002 6.0770001 0.23100001 0
4.5739999 6.0190001 0.23100001 0
4.4879999 5.9450002 0.23 0
4.4200001 5.8940001 0.23 0.07
4.3629999 5.8569999 0.23 0.2
4.2839999 5.789 0.23 0.14
4.2579999 5.7729998 0.229 0.31999999
5.8670001 7.9899998 0.23800001 0
5.5019999 7.5440001 0.236 0.07
5.5250001 7.6259999 0.236 0
5.316 7.388 0.235 0
5.257 7.3559999 0.235 0.07
5.3189998 7.4910002 0.236 0
5.2459998 7.4619999 0.236 0.28999999
5.191 7.434 0.235 0.31999999
5.1170001 7.3779998 0.235 0.22
5.0479999 7.3270001 0.235 0.33000001
4.9660001 7.257 0.235 0.14
4.947 7.2550001 0.234 0.30000001
4.8959999 7.2290001 0.234 0.34999999
4.8369999 7.1900001 0.234 0.30000001
4.763 7.1290002 0.234 0.30000001
4.711 7.0999999 0.234 0.28999999
4.665 7.079 0.234 0.27000001
4.6090002 7.0430002 0.233 0.28999999
4.5500002 6.9770002 0.233 0.22
4.4109998 6.8119998 0.23199999 0.38
4.3940001 6.8319998 0.23199999 0.30000001
4.3509998 6.8119998 0.23199999 0.23999999
4.3530002 6.8629999 0.23199999 0.31999999
4.296 6.8210001 0.23199999 0.28999999
4.2589998 6.7849998 0.23199999 0.28999999
4.1939998 6.7290001 0.23199999 0.25999999
4.1620002 6.7259998 0.23199999 0.25999999
4.0339999 6.5650001 0.23100001 0
3.872 6.348 0.23 0
3.971 6.6009998 0.23100001 0.25999999
3.947 6.585 0.23100001 0.27000001
3.8940001 6.5440001 0.23100001 0.27000001
3.8529999 6.5219998 0.23100001 0.25999999
3.813 6.5019999 0.23100001 0.25999999
3.766 6.467 0.23 0.25999999
3.7260001 6.4460001 0.23 0.23999999
3.684 6.4190001 0.23 0.18000001
3.6489999 6.382 0.23 0.43000001
3.6099999 6.3600001 0.23 0.23999999
3.572 6.3400002 0.23 0.2
3.53 6.3130002 0.23 0.41
3.483 6.2750001 0.229 0.25
3.4260001 6.2179999 0.229 0
3.279 5.9980001 0.228 0
3.2160001 5.9060001 0.228 0
3.175 5.8740001 0.228 0
3.1530001 5.8790002 0.228 0
3.1170001 5.855 0.228 0
3.0840001 5.8390002 0.228 0
3.0409999 5.8010001 0.227 0
3.006 5.7779999 0.227 0
2.9849999 5.7600002 0.227 0
2.957 5.7519999 0.227 0
2.915 5.7150002 0.227 0
2.8859999 5.7020001 0.227 0
2.8640001 5.7030001 0.227 0
2.8210001 5.6609998 0.227 0
2.803 5.6479998 0.227 0
2.766 5.6170001 0.227 0
2.737 5.605 0.226 0
2.7060001 5.5840001 0.226 0
2.678 5.5710001 0.226 0
2.651 5.5619998 0.226 0
2.6170001 5.5339999 0.226 0
2.5880001 5.4959998 0.226 0
2.5569999 5.4759998 0.226 0
2.5350001 5.473 0.226 0
2.5009999 5.4439998 0.226 0
2.4660001 5.414 0.226 0
2.4619999 5.4489999 0.226 0
2.4300001 5.4239998 0.226 0
2.3989999 5.3790002 0.22499999 0
2.369 5.3569999 0.22499999 0
2.3380001 5.3330002 0.22499999 0
2.3150001 5.3260002 0.22499999 0
2.293 5.3200002 0.22499999 0
2.2750001 5.3260002 0.22499999 0
2.253 5.3200002 0.22499999 0
2.1789999 5.2620001 0.22499999 0
2.1489999 5.2350001 0.22499999 0
2.125 5.224 0.22499999 0
2.102 5.2150002 0.22499999 0
2.089 5.2059999 0.22400001 0
2.0639999 5.1919999 0.22400001 0
2.0350001 5.165 0.22400001 0
2.013 5.1560001 0.22400001 0
1.9910001 5.1479998 0.22400001 0
1.961 5.119 0.22400001 0
1.942 5.119 0.22400001 0
1.916 5.0739999 0.22400001 0
1.913 5.1149998 0.22400001 0
1.89 5.1020002 0.22400001 0
1.8710001 5.099 0.22400001 0
1.868 5.1409998 0.22400001 0
1.863 5.1760001 0.22400001 0
1.848 5.1880002 0.22400001 0.029999999
11.394 -26.711 0.29800001 0
11.683 -27.153999 0.30000001 0.079999998
14.198 -32.728001 0.31900001 0.19
14.308 -32.700001 0.31900001 0.27000001
14.404 -32.639999 0.31900001 0.28999999
14.512 -32.608002 0.31900001 0.23999999
14.582 -32.626999 0.31900001 0.30000001
14.725 -32.669998 0.31999999 0
27.247999 -60.006001 0.41499999 0
27.486 -60.028999 0.41499999 0
15.329 -33.174999 0.322 0.13
29.879 -64.190002 0.43000001 0
30.062 -64.32 0.43099999 0
30.705999 -65.165001 0.43399999 0
32.269001 -67.93 0.44400001 0
33.07 -69.056999 0.44800001 0
46.964001 35.562 0.115 0
9.5579996 7.2589998 0.18799999 0
9.5179996 7.276 0.18799999 0
9.4029999 7.2350001 0.18799999 0.039999999
9.3979998 7.2540002 0.18799999 0.14
8.6619997 6.7709999 0.189 0.19
8.2460003 6.4860001 0.19 0.18000001
7.9860001 6.3210001 0.191 0.12
7.7360001 6.1620002 0.191 0.17
7.493 6.006 0.192 0.12
7.2779999 5.8509998 0.192 0.18000001
7.0939999 5.7389998 0.192 0.22
6.9099998 5.6259999 0.193 0.20999999
6.744 5.5250001 0.193 0.2
6.5910001 5.434 0.193 0.38
6.448 5.3499999 0.193 0.23
6.3039999 5.263 0.19400001 0.2
6.1799998 5.1750002 0.19400001 0.37
6.046 5.0949998 0.19400001 0.2
5.902 5.0050001 0.19400001 0.31
5.776 4.928 0.19499999 0.20999999
5.6350002 4.8379998 0.19499999 0.18000001
5.5019999 4.7529998 0.19499999 0.27000001
5.368 4.6659999 0.19499999 0.11
5.2389998 4.5679998 0.19599999 0.16
5.1199999 4.4910002 0.19599999 0.17
5.0159998 4.428 0.19599999 0.16
4.8839998 4.3379998 0.19599999 0.1
4.789 4.2800002 0.197 0.16
4.6820002 4.21 0.197 0.090000004
4.585 4.1350002 0.197 0.14
4.4819999 4.0669999 0.197 0.1
4.3969998 4.0149999 0.197 0.090000004
4.3000002 3.95 0.197 0.14
4.21 3.891 0.198 0.090000004
4.138 3.848 0.198 0.15000001
4.0440001 3.7839999 0.198 0.090000004
3.967 3.723 0.198 0.090000004
3.9089999 3.6919999 0.198 0.090000004
3.8280001 3.6370001 0.198 0.090000004
3.756 3.5910001 0.198 0.079999998
3.6989999 3.5580001 0.199 0.090000004
3.6210001 3.5039999 0.199 0.090000004
3.5610001 3.457 0.199 0.090000004
3.5139999 3.4330001 0.199 0.15000001
3.4300001 3.3699999 0.199 0.11
3.3889999 3.3510001 0.199 0.31999999
3.3970001 3.3800001 0.199 0.52999997
3.3629999 3.3670001 0.199 0.12
3.3889999 3.415 0.199 0.090000004
7.7290001 7.8610001 0.189 0.14
7.6960001 7.8769999 0.189 0.44
7.691 7.921 0.189 0.36000001
7.665 7.9439998 0.189 0.41
7.6370001 7.9650002 0.189 0.36000001
7.6240001 8.0019999 0.189 0.41
7.6030002 8.0299997 0.189 0.40000001
7.592 8.0439997 0.189 0.34
7.5760002 8.0780001 0.189 0.41
7.5549998 8.1059999 0.189 0.34999999
7.5320001 8.132 0.189 0.38
7.5190001 8.1689997 0.189 0.37
7.493 8.1929998 0.189 0.41
7.487 8.2119999 0.189 0.34999999
7.4660001 8.2410002 0.189 0.43000001
7.4499998 8.2749996 0.189 0.36000001
7.4320002 8.3079996 0.189 0.41
7.408 8.3339996 0.189 0.40000001
7.3899999 8.3660002 0.189 0.38
7.369 8.3950005 0.189 0.34
7.3670001 8.4200001 0.189 0.43000001
7.3410001 8.4440002 0.189 0.34
7.3200002 8.4729996 0.189 0.49000001
7.303 8.5080004 0.189 0.38999999
7.2779999 8.5319996 0.189 0.17
7.2509999 8.5550003 0.189 0.40000001
7.2459998 8.6040001 0.189 0.40000001
7.23 8.6120005 0.189 0.34
7.2090001 8.6420002 0.189 0.47
5.8520002 7.053 0.192 0.23999999
7.1890001 8.7290001 0.189 0.23
7.178 8.7720003 0.189 0.73000002
7.1479998 8.7910004 0.189 0.63999999
7.1230001 8.8170004 0.189 0.69
5.7979999 7.1929998 0.192 0.30000001
5.3429999 6.6680002 0.193 0.16
6.8150001 8.5719995 0.189 0.51999998
6.7449999 8.5380001 0.19 0.31
6.6430001 8.4630003 0.19 0.63
5.7319999 7.3439999 0.192 0.43000001
6.4949999 8.382 0.19 0.28999999
4.9299998 6.415 0.19400001 0.66000003
4.822 6.3140001 0.19400001 0.34
4.7129998 6.211 0.19400001 0.28999999
6.1589999 8.184 0.191 0.56999999
5.987 8.033 0.191 0.37
4.3829999 5.908 0.19499999 0.38
4.3660002 5.9229999 0.19499999 0.28
4.3470001 5.9369998 0.19499999 0.58999997
5.1350002 7.0679998 0.193 0.15000001
5.1820002 7.1799998 0.193 0.19
5.2459998 7.3179998 0.193 0.15000001
5.1430001 7.198 0.193 0.31
5.105 7.191 0.193 0.23
5.0900002 7.2179999 0.193 0.12
5.0960002 7.2750001 0.193 0.14
5.0840001 7.3080001 0.193 0.23
5.085 7.3579998 0.193 0.17
5.0669999 7.3559999 0.193 0.14
5.0409999 7.369 0.193 0.17
5.046 7.4260001 0.193 0.5
4.9980001 7.4060001 0.193 0.31999999
4.9359999 7.3629999 0.193 0.51999998
4.882 7.3319998 0.193 0.30000001
4.8200002 7.2870002 0.193 0.50999999
4.7820001 7.2540002 0.193 0.31
4.7150002 7.2020001 0.193 0.50999999
4.6220002 7.1079998 0.193 0.41
4.4520001 6.8920002 0.19400001 0.38
4.4310002 6.9070001 0.19400001 0.34999999
4.4429998 6.974 0.19400001 0.28
4.4530001 7.0380001 0.19400001 0.56999999
4.3870001 6.9569998 0.19400001 0.27000001
4.3629999 6.967 0.19400001 0.61000001
4.2680001 6.8639998 0.19400001 0.20999999
4.2659998 6.9089999 0.19400001 0.56999999
4.1040001 6.6919999 0.19400001 0.34999999
4.2940001 7.0539999 0.19400001 0.38999999
3.881 6.4159999 0.19499999 0.16
4.052 6.7729998 0.19400001 0.38
4.0079999 6.7480001 0.19400001 0.38999999
3.9549999 6.7049999 0.19400001 0.46000001
3.9200001 6.6929998 0.19400001 0.38
3.8740001 6.6620002 0.19499999 0.38999999
3.826 6.6279998 0.19499999 0.46000001
3.8010001 6.6090002 0.19499999 0.38
3.7520001 6.5710001 0.19499999 0.46000001
3.7190001 6.5599999 0.19499999 0.38
3.674 6.5279999 0.19499999 0.46000001
3.6329999 6.5029998 0.19499999 0.37
3.5940001 6.4809999 0.19499999 0.40000001
3.5880001 6.493 0.19499999 0.57999998
3.348 6.0999999 0.19599999 0.23
3.3080001 6.0739999 0.19599999 0.18000001
3.2750001 6.0580001 0.19599999 0.18000001
3.24 6.0380001 0.19599999 0.17
3.2090001 6.0250001 0.19599999 0.18000001
3.1719999 6.0019999 0.19599999 0.28999999
3.1470001 5.9759998 0.19599999 0.25999999
3.118 5.967 0.19599999 0.27000001
3.0810001 5.941 0.19599999 0.23999999
3.049 5.9239998 0.19599999 0.11
3.0190001 5.9099998 0.19599999 0.15000001
2.984 5.888 0.19599999 0.1
2.9519999 5.8699999 0.19599999 0.14
2.925 5.8390002 0.19599999 0.090000004
2.8959999 5.8260002 0.19599999 0
2.8659999 5.8119998 0.19599999 0
2.835 5.7940001 0.19599999 0
2.806 5.7800002 0.197 0
2.777 5.7670002 0.197 0
2.744 5.7449999 0.197 0
2.7279999 5.7329998 0.197 0
2.6949999 5.71 0.197 0
2.665 5.6919999 0.197 0
2.6359999 5.6760001 0.197 0
2.6070001 5.6609998 0.197 0
2.5780001 5.6440001 0.197 0
2.5710001 5.651 0.197 0
2.533 5.6139998 0.197 0
2.517 5.6269999 0.197 0
2.474 5.5760002 0.197 0
2.4530001 5.5749998 0.197 0
2.4219999 5.5510001 0.197 0
2.4070001 5.566 0.197 0
2.3770001 5.5190001 0.197 0
2.3570001 5.52 0.197 0
2.3329999 5.513 0.197 0
2.2950001 5.4689999 0.197 0
2.2820001 5.487 0.197 0
2.243 5.4400001 0.197 0
2.211 5.4120002 0.197 0
2.197 5.401 0.197 0
2.1719999 5.3870001 0.197 0
2.145 5.3699999 0.198 0
2.1340001 5.3899999 0.197 0
2.099 5.3499999 0.198 0
2.082 5.3559999 0.198 0
2.0439999 5.3070002 0.198 0
2.03 5.2969999 0.198 0
2.0050001 5.2789998 0.198 0.12
1.9579999 5.256 0.198 0.30000001
1.946 5.2729998 0.198 0.090000004
1.938 5.303 0.198 0.090000004
1.923 5.3130002 0.198 0.14
1.918 5.3260002 0.198 0.20999999
1.914 5.368 0.198 0.12
11.486 -26.738001 0.161 0
11.856 -27.360001 0.16 0
14.691 -32.617001 0.15099999 0
14.862 -32.721001 0.15099999 0
15.183 -33.148998 0.15000001 0
15.402 -33.352001 0.15000001 0
15.5 -33.286999 0.15000001 0
30.568001 -64.789001 0.094999999 0
32.525002 -68.376999 0.089000002 0
32.883999 -68.574997 0.089000002 0
33.403999 -69.099998 0.088 0
47.412998 35.848999 -0.26300001 0
9.4709997 7.2340002 0.112 0
9.3339996 7.223 0.113 0.090000004
8.6110001 6.7309999 0.12 0
8.2110004 6.461 0.124 0
7.8790002 6.2420001 0.127 0
7.6100001 6.0689998 0.12899999 0
7.3909998 5.9330001 0.131 0
7.1620002 5.7870002 0.133 0
6.9850001 5.6810002 0.13500001 0
6.7909999 5.5430002 0.13699999 0
6.6220002 5.4400001 0.138 0
6.454 5.336 0.14 0
6.2859998 5.2319999 0.142 0
6.1370001 5.1409998 0.14300001 0
6.0180001 5.0739999 0.14399999 0
5.8600001 4.9580002 0.145 0
5.7410002 4.888 0.147 0
5.599 4.7989998 0.148 0
5.4710002 4.7199998 0.149 0
5.3470001 4.6430001 0.15000001 0
5.224 4.566 0.15099999 0
4.9120002 4.336 0.154 0
4.6329999 4.1440001 0.15700001 0
4.5219998 4.0700002 0.15800001 0
4.4349999 4.0180001 0.15899999 0
4.3049998 3.9260001 0.16 0
4.2449999 3.8840001 0.161 0
4.1750002 3.845 0.161 0
4.0840001 3.7850001 0.162 0
4.006 3.737 0.163 0
3.925 3.6849999 0.164 0
3.848 3.6359999 0.164 0
3.7690001 3.585 0.16500001 0
3.698 3.529 0.16599999 0
3.615 3.4719999 0.16599999 0
3.5320001 3.414 0.167 0
3.457 3.3640001 0.168 0
3.3529999 3.3050001 0.169 0.22
3.339 3.3110001 0.169 0
3.336 3.319 0.169 0
3.3 3.3039999 0.169 0
7.704 7.7620001 0.12 0.16
7.6890001 7.796 0.12 0.31999999
7.6680002 7.823 0.12 0.30000001
7.6609998 7.8410001 0.12 0.31
7.632 7.8600001 0.12 0.30000001
7.6129999 7.8899999 0.12 0.28999999
7.605 7.9310002 0.119 0.31999999
7.5760002 7.9510002 0.119 0.28999999
7.559 7.9829998 0.119 0.30000001
7.5409999 8.0139999 0.119 0.28999999
7.5380001 8.0360003 0.119 0.33000001
7.5079999 8.0550003 0.119 0.28999999
7.4949999 8.092 0.119 0.31
7.4759998 8.1230001 0.119 0.31
7.454 8.1490002 0.119 0.28999999
7.4310002 8.1759996 0.119 0.30000001
7.4099998 8.2049999 0.119 0.28999999
7.4039998 8.224 0.119 0.30000001
7.3850002 8.2550001 0.119 0.28999999
7.368 8.2880001 0.119 0.30000001
7.3530002 8.323 0.118 0.31999999
7.329 8.349 0.118 0.28999999
7.3060002 8.375 0.118 0.28999999
7.289 8.4090004 0.118 0.30000001
7.2789998 8.4250002 0.118 0.34
5.8720002 6.8470001 0.13500001 0.2
7.2410002 8.4870005 0.118 0.28999999
7.2270002 8.5249996 0.118 0.28999999
7.1880002 8.5340004 0.118 0.20999999
7.1160002 8.5030003 0.119 0.18000001
5.8150001 7 0.134 0.1
7.1440001 8.618 0.118 0.25999999
7.1240001 8.7040005 0.117 0.55000001
7.2179999 8.875 0.116 0.57999998
7.0770001 8.7580004 0.117 0.19
5.2880001 6.5960002 0.139 0.19
6.8629999 8.5760002 0.119 0.36000001
6.776 8.5229998 0.12 0.31999999
6.698 8.4799995 0.121 0.41
6.5970001 8.4069996 0.122 0.16
6.5170002 8.3599997 0.122 0.50999999
4.9120002 6.3930001 0.142 0.44999999
6.323 8.2440004 0.124 0.34
4.6680002 6.1360002 0.145 0.11
5.9809999 7.902 0.12800001 0.17
6.0840001 8.0900002 0.126 0.14
5.9959998 8.026 0.127 0.31999999
4.3429999 5.8629999 0.148 0.31
4.3429999 5.8829999 0.148 0.23999999
5.6869998 7.7909999 0.13 0.51999998
5.6469998 7.7880001 0.13 0.16
5.5999999 7.7750001 0.13 0.31
5.52 7.7150002 0.131 0.27000001
5.4699998 7.6960001 0.132 0.41
5.3920002 7.612 0.132 0.23
5.3439999 7.5939999 0.133 0.28999999
5.2859998 7.5640001 0.133 0.31999999
5.2309999 7.5339999 0.134 0.31999999
5.151 7.4699998 0.134 0.18000001
5.1030002 7.4499998 0.13500001 0.5
5.0100002 7.3649998 0.13600001 0.14
4.9860001 7.355 0.13600001 0.34
4.9330001 7.3260002 0.13600001 0.28999999
4.8829999 7.302 0.13699999 0.31
4.8119998 7.2459998 0.13699999 0.28
4.743 7.191 0.138 0.2
4.7080002 7.1869998 0.138 0.47999999
4.4920001 6.9060001 0.141 0.16
4.4369998 6.8460002 0.142 0.34
4.415 6.8579998 0.142 0.27000001
4.3839998 6.8579998 0.142 0.16
4.4439998 6.9990001 0.141 0.50999999
4.3340001 6.8740001 0.142 0.25
4.3390002 6.9299998 0.142 0.28999999
4.27 6.869 0.142 0.16
4.256 6.8709998 0.142 0.43000001
4.1630001 6.7680001 0.14300001 0.17
4.0570002 6.6430001 0.145 0
3.973 6.5539999 0.146 0
3.8499999 6.3969998 0.147 0.1
4.026 6.7340002 0.14399999 0.25
3.974 6.6719999 0.145 0.16
3.951 6.6810002 0.145 0.44
3.904 6.6490002 0.145 0.25
3.859 6.6209998 0.146 0.25999999
3.8010001 6.5689998 0.146 0.15000001
3.7709999 6.5640001 0.146 0.44999999
3.727 6.5359998 0.147 0.23999999
3.694 6.5019999 0.147 0.18000001
3.661 6.4910002 0.147 0.40000001
3.615 6.4569998 0.148 0.2
3.5050001 6.3099999 0.149 0
3.402 6.1700001 0.15000001 0
3.303 6.0370002 0.152 0
3.2539999 5.9920001 0.152 0
3.2390001 5.9879999 0.152 0
3.1930001 5.947 0.153 0
3.165 5.9390001 0.153 0
3.1270001 5.914 0.153 0
3.073 5.8569999 0.154 0
3.0469999 5.8520002 0.154 0
3.006 5.8169999 0.154 0
2.987 5.8039999 0.155 0
2.9579999 5.7919998 0.155 0
2.9130001 5.75 0.155 0
2.881 5.7309999 0.155 0
2.849 5.711 0.156 0
2.813 5.684 0.156 0
2.793 5.6669998 0.156 0
2.763 5.651 0.156 0
2.721 5.6110001 0.15700001 0
2.681 5.573 0.15700001 0
2.6570001 5.5689998 0.15700001 0
2.6259999 5.5479999 0.15800001 0
2.6029999 5.5440001 0.15800001 0
2.585 5.5300002 0.15800001 0
2.5610001 5.5229998 0.15800001 0
2.5309999 5.5040002 0.15800001 0
2.493 5.467 0.15899999 0
2.474 5.4710002 0.15899999 0
2.4430001 5.447 0.15899999 0
2.418 5.4390001 0.15899999 0
2.4030001 5.428 0.15899999 0
2.3759999 5.4130001 0.15899999 0
2.3529999 5.4060001 0.16 0
2.3180001 5.3730001 0.16 0
2.303 5.3839998 0.16 0
2.277 5.3709998 0.16 0
2.25 5.3530002 0.16 0
2.2349999 5.3410001 0.16 0
2.2149999 5.3410001 0.16 0
2.187 5.322 0.161 0
2.152 5.2849998 0.161 0
2.1340001 5.2859998 0.161 0
2.112 5.2810001 0.161 0
2.0869999 5.2659998 0.161 0
2.069 5.2449999 0.162 0
2.046 5.2350001 0.162 0
2.0220001 5.2220001 0.162 0
2.0009999 5.217 0.162 0
1.975 5.198 0.162 0
1.949 5.1789999 0.162 0
1.942 5.184 0.162 0
1.9349999 5.2150002 0.162 0
1.92 5.2259998 0.162 0
1.909 5.2459998 0.162 0
1.901 5.276 0.162 0
1.885 5.2820001 0.162 0.029999999
11.43 -26.593 -0.022 0
11.799 -27.216 -0.028000001 0
14.635 -33.485001 -0.082000002 0
14.748 -33.455002 -0.082000002 0
14.856 -33.416 -0.082000002 0
14.562 -32.341999 -0.074000001 0
15.093 -33.243 -0.082000002 0.07
15.167 -33.127998 -0.081 0.14
15.283 -33.108002 -0.082000002 0
28.612 -61.527 -0.329 0
29.434 -62.778999 -0.34099999 0
30.271 -64.303001 -0.354 0
31.068001 -65.461998 -0.36500001 0
24.209 -50.585999 -0.236 0
24.334999 -50.441002 -0.236 0
24.483999 -50.345001 -0.235 0
24.712999 -50.412998 -0.237 0
24.924999 -50.445 -0.23800001 0
47.93 36.181 -0.63599998 0
9.4989996 7.2389998 0.037999999 0
9.3430004 7.2129998 0.039999999 0
8.5649996 6.7179999 0.052999999 0.57999998
8.1099997 6.4000001 0.061000001 0.19
41.875 33.398998 -0.54500002 0.14
41.776001 33.535 -0.54500002 0.16
7.5770001 6.0939999 0.068999998 0.19
7.131 5.7709999 0.077 0.16
6.947 5.6389999 0.079999998 0.12
6.7950001 5.5500002 0.082999997 0.17
6.6279998 5.448 0.085000001 0.12
6.4689999 5.3509998 0.088 0.17
6.336 5.2740002 0.090000004 0.28999999
6.1890001 5.184 0.092 0.27000001
6.0539999 5.0869999 0.094999999 0.11
5.9169998 5.0019999 0.097000003 0.15000001
5.7789998 4.9159999 0.098999999 0.1
5.6409998 4.829 0.101 0
5.5159998 4.7509999 0.104 0
5.3850002 4.6669998 0.106 0
5.2540002 4.5819998 0.108 0
5.165 4.5180001 0.109 0
5.0320001 4.4289999 0.112 0
4.915 4.3530002 0.114 0
4.8270001 4.3010001 0.115 0
4.7069998 4.2199998 0.117 0
4.599 4.1490002 0.119 0
4.4860001 4.0710001 0.121 0
4.3979998 4.0040002 0.122 0
4.3169999 3.954 0.124 0
4.2270002 3.895 0.125 0
4.1209998 3.8210001 0.127 0
4.0359998 3.7650001 0.12800001 0
3.9560001 3.7130001 0.13 0
3.8989999 3.671 0.131 0
3.826 3.6240001 0.132 0
3.7290001 3.5539999 0.133 0
3.678 3.527 0.134 0
3.6210001 3.494 0.13500001 0
3.5439999 3.441 0.13600001 0
3.4849999 3.404 0.13699999 0.07
3.4300001 3.3599999 0.138 0.11
3.381 3.3329999 0.139 0.19
3.359 3.332 0.139 0.38
3.335 3.329 0.14 0
7.6529999 7.8330002 0.052000001 0.38
7.652 7.8569999 0.052000001 0.37
7.6220002 7.875 0.052000001 0.43000001
7.6079998 7.9109998 0.052000001 0.36000001
7.5819998 7.9330001 0.052000001 0.41999999
7.5700002 7.9710002 0.050999999 0.36000001
7.5479999 7.9980001 0.050999999 0.41
7.5279999 8.0270004 0.050999999 0.34999999
