# .PCD v0.7 - Point Cloud Data file format
VERSION 0.7
FIELDS x y z intensity
SIZE 4 4 4 4
TYPE F F F F
COUNT 1 1 1 1
WIDTH 1294
HEIGHT 1
VIEWPOINT 0 0 0 1 0 0 0
POINTS 1294
DATA ascii
-6.2350001 -14.65 -0.20999999 0.27000001
-6.2579999 -14.833 -0.215 0.57999998
-5.7150002 -13.66 -0.18099999 0.22
-5.4390001 -13.115 -0.16500001 0.12
-5.289 -12.865 -0.15800001 0.38
-5.2449999 -12.872 -0.15800001 0.38999999
-5.198 -12.872 -0.15700001 0.47999999
-5.1929998 -12.919 -0.15800001 0.36000001
-5.177 -12.999 -0.16 0.19
-5.6370001 -14.29 -0.19599999 0.25
-5.5689998 -14.25 -0.19400001 0.44
-5.5149999 -14.243 -0.19400001 0.30000001
-5.441 -14.183 -0.191 0.51999998
-5.323 -13.94 -0.184 0.16
-5.362 -14.175 -0.19 0.41999999
-5.3720002 -14.338 -0.19499999 0.57999998
-5.1620002 -13.91 -0.182 0.22
-5.0749998 -13.808 -0.17900001 0.23
-4.5580001 -12.639 -0.146 0.38
-4.902 -13.665 -0.17399999 0.33000001
-4.7919998 -13.628 -0.17200001 0.33000001
-4.7259998 -13.575 -0.17 0.58999997
-4.0799999 -11.83 -0.122 0.30000001
-4.0339999 -11.817 -0.121 0.16
-4.0040002 -11.85 -0.121 0.28999999
-3.9920001 -11.877 -0.122 0.34
-3.9530001 -11.882 -0.122 0.62
-3.915 -11.893 -0.122 0.38
-3.8610001 -11.853 -0.12 0.27000001
-3.8180001 -11.848 -0.12 0.63999999
-3.7880001 -11.883 -0.12 0.34
-4.1570001 -13.121 -0.154 0.5
-4.085 -13.037 -0.152 0.38
-4.027 -12.994 -0.15000001 0.47
-3.9779999 -12.98 -0.149 0.23
-3.9159999 -12.922 -0.147 0.60000002
-3.865 -12.899 -0.146 0.2
-3.8010001 -12.831 -0.14399999 0.56
-3.77 -12.8 -0.14300001 0.28999999
-3.72 -12.777 -0.142 0.41
-3.6630001 -12.729 -0.141 0.43000001
-3.6029999 -12.672 -0.139 0.43000001
-3.5439999 -12.612 -0.13699999 0.40000001
-3.2279999 -11.622 -0.11 0.31999999
-3.4649999 -12.559 -0.13500001 0.31
-3.415 -12.531 -0.134 0.34
-3.3610001 -12.486 -0.132 0.44
-3.3210001 -12.494 -0.132 0.33000001
-3.263 -12.433 -0.13 0.54000002
-3.2079999 -12.379 -0.12899999 0.28
-3.1370001 -12.265 -0.125 0.47
-3.0539999 -12.016 -0.119 0.2
-3.0020001 -11.97 -0.117 0.44
-2.9790001 -12.035 -0.119 0.36000001
-2.95 -12.081 -0.12 0.41
-2.905 -12.063 -0.119 0.56
-2.8699999 -12.084 -0.119 0.40000001
-0.102 -15.473 -0.199 0.20999999
-0.052999999 -15.439 -0.198 0.14
0.035999998 -13.794 -0.155 0.34999999
0.057999998 -13.784 -0.155 0.34
0.101 -13.763 -0.154 0.16
0.145 -13.805 -0.155 0.47
22.375999 -33.778 -0.852 0.2
22.396999 -33.694 -0.85000002 0.30000001
22.517 -33.645 -0.85100001 0.30000001
22.641001 -33.601002 -0.852 0.28
22.815001 -33.630001 -0.85500002 0
25.367001 -37.136002 -0.96799999 0
-21.538 -19.875999 -0.73400003 0.18000001
-21.445999 -20.042999 -0.73500001 0.19
-21.278 -20.011 -0.73100001 0.16
-8.5559998 -8.1190004 -0.17299999 0.31999999
-8.5389996 -8.1280003 -0.17299999 0.16
-8.493 -8.1350002 -0.17200001 0.38999999
-8.4700003 -8.165 -0.17200001 0.38999999
-8.427 -8.1750002 -0.171 0.58999997
-8.3660002 -8.1660004 -0.17 0.18000001
-8.3059998 -8.1590004 -0.168 0.54000002
-8.2939997 -8.1990004 -0.169 0.31999999
-8.4250002 -8.3540001 -0.175 0.56999999
-18.65 -18.565001 -0.63800001 0.28
-18.021999 -18.054001 -0.61199999 0.22
-13.058 -16.336 -0.465 0.58999997
-13.053 -16.434999 -0.46700001 0.27000001
-13.027 -16.509001 -0.46900001 0.62
-12.936 -16.499001 -0.46700001 0.22
-12.854 -16.502001 -0.465 0.49000001
-12.824 -16.570999 -0.46599999 0.37
-12.766 -16.603001 -0.46599999 0.66000003
-12.859 -16.886999 -0.47499999 0.44999999
-11.344 -15 -0.398 0.23
-11.368 -15.13 -0.40099999 0.76999998
-11.234 -15.051 -0.39700001 0.31999999
-11.212 -15.119 -0.398 0.31999999
-11.146 -15.131 -0.39700001 0.64999998
-12.519 -17.044001 -0.47299999 0.40000001
-12.484 -17.108999 -0.47400001 0.40000001
-12.418 -17.131001 -0.47299999 0.5
-12.398 -17.332001 -0.47799999 0.30000001
-12.256 -17.362 -0.47600001 0.23
-8.9200001 -12.691 -0.292 0.62
-12.234 -17.506001 -0.479 0.41
-12.121 -17.461 -0.47600001 0.51999998
-12.062 -17.492001 -0.47600001 0.19
-12 -17.52 -0.47499999 0.18000001
-8.4709997 -13.439 -0.30399999 0.38
-8.4259996 -13.461 -0.30399999 0.51999998
-8.3719997 -13.469 -0.303 0.33000001
-8.3669996 -13.509 -0.30399999 0.66000003
-8.3769999 -13.62 -0.30700001 0.55000001
-10.357 -16.945999 -0.43099999 0.30000001
-10.158 -16.739 -0.42199999 0.15000001
-10.172 -16.881001 -0.426 0.25999999
-7.8299999 -13.099 -0.28400001 0.27000001
-7.796 -13.089 -0.28299999 0.37
-7.7399998 -13.087 -0.28200001 0.67000002
-7.7059999 -13.124 -0.28299999 0.52999997
-7.8629999 -13.488 -0.29499999 0.28999999
-5.8390002 -10.101 -0.169 0.40000001
-5.7870002 -10.084 -0.168 0.20999999
-5.756 -10.104 -0.168 0.14
-5.7509999 -10.132 -0.169 0.50999999
-5.7270002 -10.164 -0.169 0.19
-6.1389999 -10.971 -0.198 0.18000001
-6.098 -10.978 -0.198 0.60000002
-9.1409998 -16.552999 -0.40099999 0.14
-8.9940004 -16.408001 -0.39500001 0.2
-8.9289999 -16.410999 -0.39399999 0.41999999
-7.9559999 -15.788 -0.361 0.2
-7.8340001 -15.793 -0.36000001 0.56
-7.7480001 -15.682 -0.35499999 0.34
-7.6599998 -15.627 -0.35299999 0.2
-5.6820002 -11.699 -0.212 0.58999997
-5.6430001 -11.713 -0.212 0.52999997
-7.3870001 -15.438 -0.34299999 0.25
-7.2670002 -15.435 -0.34200001 0.50999999
-7.197 -15.35 -0.338 0.31
-7.1170001 -15.304 -0.336 0.36000001
-7.0450001 -15.276 -0.33399999 0.23
-6.9039998 -15.094 -0.32699999 0.28
-6.8629999 -15.13 -0.32699999 0.63999999
-6.7969999 -15.112 -0.32600001 0.38999999
-6.4250002 -14.843 -0.31299999 0.25999999
-6.4050002 -14.924 -0.315 0.67000002
-6.277 -14.755 -0.30899999 0.2
-5.3720002 -12.692 -0.237 0.33000001
-5.329 -12.703 -0.237 0.38
-5.2779999 -12.692 -0.236 0.43000001
-5.2309999 -12.692 -0.235 0.55000001
-5.1919999 -12.71 -0.235 0.40000001
-5.1360002 -12.687 -0.234 0.62
-5.1090002 -12.735 -0.235 0.34
-5.092 -12.75 -0.235 0.62
-5.645 -14.258 -0.28600001 0.44999999
-5.1259999 -13.194 -0.249 0.30000001
-5.0799999 -13.197 -0.248 0.55000001
-5.026 -13.18 -0.24699999 0.38999999
-4.974 -13.169 -0.24600001 0.61000001
-4.9390001 -13.14 -0.245 0.38999999
-4.9050002 -13.174 -0.24600001 0.57999998
-4.8509998 -13.155 -0.244 0.38999999
-4.7649999 -13.049 -0.23999999 0.57999998
-4.559 -12.611 -0.22499999 0.44
-4.638 -12.952 -0.236 0.2
-4.6370001 -13.014 -0.23800001 0.49000001
-4.6370001 -13.144 -0.242 0.75
-4.6170001 -13.22 -0.244 0.46000001
-4.0570002 -11.745 -0.193 0.2
-4.125 -12.06 -0.204 0.2
-4.0079999 -11.842 -0.19599999 0.5
-3.9560001 -11.811 -0.19400001 0.69
-3.9319999 -11.8 -0.19400001 0.40000001
-3.888 -11.794 -0.193 0.49000001
-3.8499999 -11.8 -0.193 0.55000001
-3.809 -11.803 -0.193 0.73000002
-4.1939998 -13.126 -0.237 0.30000001
-4.1420002 -13.105 -0.236 0.51999998
-4.145 -13.185 -0.23800001 0.75999999
-4.027 -12.956 -0.23 0.34999999
-3.98 -12.946 -0.229 0.31
-3.9230001 -12.907 -0.227 0.62
-3.8659999 -12.865 -0.226 0.34999999
-3.812 -12.831 -0.22400001 0.38999999
-3.7550001 -12.788 -0.222 0.51999998
-3.7249999 -12.759 -0.221 0.33000001
-3.664 -12.7 -0.219 0.69999999
-3.619 -12.692 -0.21799999 0.23
-3.556 -12.621 -0.215 0.62
-3.2219999 -11.585 -0.18000001 0.34
-3.457 -12.573 -0.213 0.28999999
-3.3929999 -12.493 -0.20999999 0.52999997
-3.3640001 -12.466 -0.20900001 0.33000001
-3.3199999 -12.457 -0.208 0.41
-3.2650001 -12.41 -0.206 0.73000002
-3.221 -12.399 -0.206 0.23999999
-3.1570001 -12.314 -0.20299999 0.47999999
-3.0339999 -11.992 -0.192 0.30000001
-2.9849999 -11.957 -0.19 0.47999999
-2.9719999 -11.985 -0.191 0.47
-2.9419999 -12.024 -0.192 0.56999999
-2.9030001 -12.029 -0.192 0.54000002
-2.855 -11.995 -0.19 0.76999998
-2.8299999 -12.057 -0.192 0.30000001
-0.171 -15.472 -0.29100001 0.33000001
-0.122 -15.448 -0.28999999 0.31
-0.072999999 -15.415 -0.289 0.23
-0.018999999 -13.734 -0.235 0.2
0.024 -13.692 -0.234 0.56999999
0.067000002 -13.657 -0.233 0.2
0.11 -13.667 -0.233 0.40000001
0.132 -13.677 -0.233 0.28
0.175 -13.718 -0.235 0.43000001
30.694 -46.693001 -1.584 0
22.395 -33.709 -1.091 0.27000001
22.756001 -34.02 -1.1059999 0
27.487 -40.824001 -1.3710001 0
25.541 -37.674 -1.252 0
25.695999 -37.647999 -1.255 0
-21.593 -20.122 -0.93400002 0.15000001
-8.6379995 -8.0790005 -0.252 0.16
-8.5900002 -8.085 -0.25099999 0.64999998
-8.552 -8.1000004 -0.25 0.55000001
-8.5310001 -8.1309996 -0.25 0.46000001
-8.5120001 -8.1389999 -0.25 0.56
-8.4689999 -8.1490002 -0.249 0.55000001
-8.4540005 -8.1850004 -0.25 0.72000003
-8.4219999 -8.2060003 -0.249 0.73000002
-8.3789997 -8.2150002 -0.248 0.73000002
-8.3719997 -8.2600002 -0.249 0.38
-8.3789997 -8.3190002 -0.25099999 0.68000001
-8.3430004 -8.309 -0.25 0.67000002
-8.335 -8.3540001 -0.25099999 0.52999997
-8.3199997 -8.3909998 -0.252 0.20999999
-13.217 -16.200001 -0.602 0.70999998
-11.705 -14.434 -0.51200002 0.36000001
-13.134 -16.306 -0.60299999 0.34999999
-13.09 -16.357 -0.60399997 0.44999999
-13.063 -16.427999 -0.60500002 0.55000001
-13.073 -16.493999 -0.60699999 0.38
-13.052 -16.573999 -0.60900003 0.64999998
-12.975 -16.583 -0.60799998 0.31999999
-12.763 -16.742001 -0.60799998 0.43000001
-12.884 -16.955999 -0.61699998 0.30000001
-11.34 -15.017 -0.52100003 0.63999999
-11.46 -15.277 -0.53200001 0.66000003
-11.175 -14.993 -0.51700002 0.27000001
-11.012 -14.871 -0.509 0.16
-10.922 -14.847 -0.50700003 0.30000001
-10.946 -14.929 -0.50999999 0.58999997
-11.033 -15.148 -0.51800001 0.17
-12.433 -17.188999 -0.61400002 0.19
-12.392 -17.245001 -0.61500001 0.51999998
-12.361 -17.316999 -0.616 0.27000001
-12.281 -17.32 -0.61500001 0.44999999
-9.0170002 -12.789 -0.39899999 0.38
-8.9230003 -12.699 -0.39399999 0.62
-7.8060002 -11.178 -0.322 0.27000001
-7.7389998 -11.156 -0.31900001 0.30000001
-7.6999998 -11.175 -0.31900001 0.20999999
-7.6719999 -11.21 -0.31999999 0.50999999
-7.7859998 -11.454 -0.33000001 0.19
-9.2390003 -13.74 -0.43399999 0.19
-9.1520004 -13.702 -0.43099999 0.41999999
-9.1090002 -13.731 -0.43099999 0.41
-11.475 -17.43 -0.60000002 0.34
-11.399 -17.431999 -0.59899998 0.25
-11.305 -17.407 -0.59600002 0.51999998
-11.265 -17.405001 -0.59500003 0.25999999
-8.5039997 -13.311 -0.405 0.36000001
-8.4069996 -13.25 -0.40099999 0.18000001
-8.309 -13.187 -0.39700001 0.30000001
-8.2229996 -13.142 -0.39399999 0.27000001
-8.1800003 -13.164 -0.39300001 0.34999999
-8.3990002 -13.566 -0.41100001 0.5
-10.388 -16.909 -0.56099999 0.25
-10.288 -16.865 -0.55800003 0.55000001
-10.226 -16.882 -0.55699998 0.5
-10.098 -16.788 -0.551 0.19
-7.836 -13.204 -0.38800001 0.58999997
-7.7989998 -13.189 -0.38699999 0.57999998
-9.6960001 -16.528999 -0.53500003 0.16
-7.6589999 -13.139 -0.382 0.37
-5.8509998 -10.099 -0.24600001 0.30000001
-5.8000002 -10.084 -0.244 0.63
-5.7670002 -10.1 -0.244 0.34
-5.7470002 -10.101 -0.244 0.47999999
-5.723 -10.133 -0.245 0.41999999
-5.7249999 -10.212 -0.24699999 0.14
-6.1110001 -10.985 -0.28099999 0.69999999
-6.0869999 -11.023 -0.28099999 0.38
-8.7069998 -15.909 -0.495 0.25999999
-8.6540003 -15.931 -0.495 0.61000001
-8.6440001 -15.973 -0.49599999 0.38
-8.5769997 -15.969 -0.495 0.27000001
-8.54 -16.02 -0.49599999 0.28999999
-8.5050001 -16.077 -0.49700001 0.31
-8.4619999 -16.118 -0.498 0.25
-8.0059996 -15.784 -0.47799999 0.22
-7.9679999 -15.833 -0.479 0.44
-7.9200001 -15.863 -0.47999999 0.28
-7.8790002 -15.904 -0.47999999 0.37
-7.5430002 -15.345 -0.45500001 0.23999999
-7.6719999 -15.672 -0.46900001 0.2
-5.7160001 -11.754 -0.30000001 0.23
-5.6550002 -11.723 -0.29800001 0.69999999
-7.3740001 -15.427 -0.45500001 0.16
-7.2550001 -15.302 -0.449 0.66000003
-7.1030002 -15.102 -0.43900001 0.34
-7.0110002 -14.967 -0.433 0.34999999
-7.0009999 -15.069 -0.43700001 0.54000002
-6.9419999 -15.065 -0.435 0.37
-6.8959999 -15.09 -0.43599999 0.64999998
-6.8779998 -15.178 -0.43799999 0.27000001
-6.8299999 -15.199 -0.43799999 0.60000002
-6.7690001 -15.189 -0.43700001 0.41
-6.5570002 -14.776 -0.419 0.40000001
-6.5089998 -14.791 -0.419 0.30000001
-6.4629998 -14.813 -0.419 0.38
-6.415 -14.83 -0.419 0.38
-5.4640002 -12.732 -0.33000001 0.5
-5.402 -12.696 -0.32800001 0.41
-5.3470001 -12.678 -0.32600001 0.55000001
-5.3119998 -12.65 -0.32499999 0.63
-5.2680001 -12.657 -0.32499999 0.62
-5.2249999 -12.666 -0.324 0.62
-5.178 -12.664 -0.32300001 0.63
-5.1350002 -12.673 -0.32300001 0.67000002
-5.1009998 -12.704 -0.324 0.63
-5.0869999 -12.726 -0.324 0.66000003
-5.053 -12.757 -0.32499999 0.63999999
-5.0300002 -12.818 -0.32699999 0.62
-5.0349998 -12.951 -0.33199999 0.55000001
-5.0359998 -13.075 -0.336 0.40000001
-4.9650002 -13.012 -0.333 0.31999999
-4.895 -12.951 -0.33000001 0.31999999
-4.8520002 -12.897 -0.32699999 0.31999999
-4.7919998 -12.86 -0.32499999 0.27000001
-4.7350001 -12.83 -0.32300001 0.25
-4.6820002 -12.809 -0.322 0.5
-4.6149998 -12.75 -0.31900001 0.34999999
-4.5489998 -12.691 -0.31600001 0.40000001
-4.5549998 -12.772 -0.31900001 0.41
-4.704 -13.325 -0.34099999 0.31
-4.7129998 -13.485 -0.347 0.31
-4.0700002 -11.756 -0.27599999 0.2
-4.0279999 -11.753 -0.27500001 0.27000001
-4.0029998 -11.8 -0.27599999 0.30000001
-3.9719999 -11.831 -0.27700001 0.66000003
-3.9460001 -11.815 -0.27599999 0.69999999
-3.901 -11.804 -0.27500001 0.41
-3.862 -11.811 -0.27500001 0.63
-3.8269999 -11.829 -0.27500001 0.62
-3.7980001 -11.865 -0.27599999 0.5
-4.0539999 -12.812 -0.31400001 0.38999999
-3.9649999 -12.666 -0.308 0.2
-3.961 -12.724 -0.31 0.15000001
-3.9170001 -12.867 -0.315 0.63999999
-3.8269999 -12.862 -0.31299999 0.36000001
-3.7709999 -12.821 -0.31099999 0.69999999
-3.72 -12.796 -0.31 0.30000001
-3.6889999 -12.761 -0.308 0.47999999
-3.6329999 -12.719 -0.30599999 0.69999999
-3.579 -12.679 -0.30399999 0.30000001
-3.516 -12.607 -0.301 0.66000003
-3.391 -12.306 -0.28799999 0.17
-3.4130001 -12.54 -0.29699999 0.40000001
-3.381 -12.503 -0.29499999 0.40000001
-3.332 -12.475 -0.294 0.43000001
-3.286 -12.46 -0.29300001 0.55000001
-3.2379999 -12.434 -0.29100001 0.69
-3.184 -12.387 -0.289 0.33000001
-3.132 -12.343 -0.287 0.40000001
-3.0020001 -11.986 -0.27200001 0.47999999
-2.9849999 -12.001 -0.273 0.62
-2.9519999 -12.028 -0.273 0.64999998
-2.914 -12.037 -0.273 0.68000001
-2.8729999 -12.034 -0.273 0.66000003
-2.8369999 -12.051 -0.273 0.66000003
-0.086999997 -20.688 -0.59399998 0.11
0.02 -13.739 -0.32600001 0.23
0.063000001 -13.689 -0.324 0.47999999
0.106 -13.689 -0.324 0.28999999
0.127 -13.693 -0.324 0.36000001
22.392 -33.544998 -1.351 0.17
22.641001 -33.688 -1.3609999 0
25.612 -37.846001 -1.558 0
25.393 -37.27 -1.535 0
-8.599 -8.0229998 -0.31900001 0.63999999
-8.566 -8.0430002 -0.31900001 0.63999999
-8.5220003 -8.052 -0.31799999 0.69999999
-8.4750004 -8.0579996 -0.317 0.63999999
-8.4510002 -8.0860004 -0.317 0.69
-8.4399996 -8.1009998 -0.317 0.67000002
-8.4130001 -8.1260004 -0.317 0.66000003
-8.3859997 -8.151 -0.317 0.61000001
-8.3640003 -8.1820002 -0.317 0.62
-8.3240004 -8.1940002 -0.31600001 0.64999998
-8.309 -8.2299995 -0.317 0.34999999
-8.2980003 -8.2709999 -0.31799999 0.38
-8.2910004 -8.29 -0.31799999 0.28999999
-8.2589998 -8.3100004 -0.31799999 0.19
-8.2670002 -8.3699999 -0.31999999 0.58999997
-17.288 -17.573999 -0.89300001 0.12
-16.672001 -17.056 -0.85699999 0.25
-12.934 -15.405 -0.69099998 0.31999999
-12.738 -15.269 -0.68099999 0.25
-12.614 -15.218 -0.676 0.44999999
-12.593 -15.29 -0.67699999 0.27000001
-12.587 -15.331 -0.67900002 0.47999999
-12.536 -15.368 -0.67900002 0.28999999
-11.673 -14.404 -0.62099999 0.47999999
-12.447 -15.456 -0.67900002 0.30000001
-12.442 -15.549 -0.68199998 0.54000002
-12.439 -15.646 -0.685 0.31999999
-12.353 -15.587 -0.68099999 0.47
-12.228 -15.53 -0.676 0.56
-12.2 -15.595 -0.67699999 0.13
-12.821 -16.601 -0.72899997 0.41
-12.77 -16.642 -0.72899997 0.63999999
-12.757 -16.733 -0.73199999 0.34
-11.384 -14.986 -0.63300002 0.62
-11.389 -15.09 -0.63700002 0.25999999
-11.401 -15.206 -0.64200002 0.15000001
-12.812 -17.194 -0.75 0.63
-10.976 -14.833 -0.61699998 0.15000001
-10.89 -14.814 -0.61400002 0.34999999
-10.851 -14.859 -0.61500001 0.44999999
-11.103 -15.252 -0.63499999 0.20999999
-11.118 -15.375 -0.63999999 0.62
-12.405 -17.261999 -0.74199998 0.2
-9.0419998 -12.762 -0.49200001 0.18000001
-8.9729996 -12.75 -0.49000001 0.38999999
-8.8920002 -12.677 -0.48500001 0.56999999
-7.7490001 -11.128 -0.40000001 0.16
-7.6950002 -11.125 -0.398 0.47999999
-7.6620002 -11.152 -0.398 0.23999999
-7.6420002 -11.198 -0.39899999 0.38
-7.6139998 -11.233 -0.40000001 0.62
-11.42 -16.938 -0.70499998 0.31999999
-9.1920004 -13.69 -0.52999997 0.17
-9.125 -13.682 -0.528 0.40000001
-9.1020002 -13.741 -0.52899998 0.28
-9.059 -13.769 -0.52899998 0.60000002
-11.424 -17.472 -0.72500002 0.25999999
-11.348 -17.474001 -0.72299999 0.44
-11.258 -17.455999 -0.72000003 0.28999999
-10.854 -16.889 -0.68900001 0.49000001
-8.4540005 -13.256 -0.49599999 0.31999999
-8.3520002 -13.188 -0.491 0.30000001
-8.2550001 -13.127 -0.486 0.23
-8.1850004 -13.107 -0.484 0.28999999
-8.1520004 -13.146 -0.484 0.51999998
-10.382 -16.787001 -0.67400002 0.20999999
-10.342 -16.84 -0.67500001 0.34999999
-10.292 -16.878 -0.676 0.55000001
-10.083 -16.652 -0.662 0.15000001
-7.882 -13.121 -0.477 0.41999999
-7.8010001 -13.079 -0.47400001 0.70999998
-7.7690001 -13.119 -0.47499999 0.55000001
-9.7530003 -16.516001 -0.64999998 0.17
-9.5799999 -16.34 -0.639 0.36000001
-9.4499998 -16.236 -0.63200003 0.12
-5.8200002 -10.091 -0.315 0.34999999
-5.7649999 -10.069 -0.31200001 0.27000001
-5.7340002 -10.089 -0.31299999 0.34
-5.7189999 -10.136 -0.31400001 0.25999999
-5.7090001 -10.156 -0.315 0.63
-6.1339998 -10.987 -0.35600001 0.27000001
-6.1329999 -11.068 -0.359 0.69999999
-8.802 -15.978 -0.60799998 0.38
-8.5690002 -15.789 -0.59500003 0.40000001
-8.5530005 -15.879 -0.59899998 0.57999998
-8.3129997 -15.493 -0.57800001 0.25
-8.2659998 -15.523 -0.579 0.17
-8.2320004 -15.577 -0.57999998 0.50999999
-8.1669998 -15.571 -0.57800001 0.22
-7.9640002 -15.303 -0.56400001 0.23
-7.9169998 -15.329 -0.56400001 0.28
-7.9060001 -15.367 -0.565 0.25
-7.8429999 -15.363 -0.56400001 0.36000001
-7.75 -15.3 -0.55900002 0.19
-7.5830002 -15.089 -0.54799998 0.28999999
-7.5539999 -15.148 -0.54900002 0.28
-7.4990001 -15.158 -0.54900002 0.20999999
-7.4159999 -15.11 -0.54500002 0.14
-7.2750001 -14.883 -0.53299999 0.23999999
-5.6620002 -11.688 -0.37400001 0.64999998
-7.177 -14.919 -0.53299999 0.23
-7.1030002 -14.884 -0.52999997 0.50999999
-7.0170002 -14.825 -0.52600002 0.31999999
-6.902 -14.701 -0.51899999 0.41999999
-6.8639998 -14.74 -0.51999998 0.28999999
-6.8080001 -14.68 -0.51599997 0.23
-6.7030001 -14.575 -0.50999999 0.20999999
-6.6409998 -14.561 -0.50800002 0.19
-6.566 -14.516 -0.505 0.15000001
-6.539 -14.579 -0.50700003 0.33000001
-6.5019999 -14.619 -0.50800002 0.46000001
-6.4980001 -14.672 -0.50999999 0.36000001
-6.46 -14.71 -0.51099998 0.55000001
-6.4330001 -14.774 -0.51300001 0.34
-5.4759998 -12.694 -0.41100001 0.73000002
-5.421 -12.678 -0.41 0.31999999
-5.3509998 -12.623 -0.40599999 0.51999998
-5.2979999 -12.609 -0.405 0.57999998
-5.2729998 -12.604 -0.40400001 0.61000001
-5.2280002 -12.608 -0.403 0.62
-5.1810002 -12.606 -0.403 0.64999998
-5.1420002 -12.625 -0.403 0.63999999
-5.105 -12.647 -0.403 0.60000002
-5.0710001 -12.676 -0.40400001 0.55000001
-5.066 -12.723 -0.40599999 0.5
-5.0289998 -12.746 -0.40599999 0.55000001
-4.9920001 -12.769 -0.40599999 0.60000002
-4.9489999 -12.778 -0.40599999 0.68000001
-5.0250001 -13.093 -0.41999999 0.38999999
-4.9569998 -13.04 -0.417 0.38999999
-4.8940001 -12.997 -0.414 0.38
-4.8559999 -12.958 -0.412 0.31999999
-4.7870002 -12.899 -0.40799999 0.38999999
-4.7270002 -12.859 -0.40599999 0.38999999
-4.6620002 -12.808 -0.403 0.47
-4.5440001 -12.607 -0.39199999 0.36000001
-4.5450001 -12.736 -0.398 0.31999999
-4.5110002 -12.765 -0.39899999 0.56999999
-4.7540002 -13.516 -0.43399999 0.41
-4.0549998 -11.659 -0.345 0.55000001
-4.0289998 -11.702 -0.347 0.23
-3.9779999 -11.673 -0.345 0.19
-3.9319999 -11.777 -0.34900001 0.54000002
-3.888 -11.77 -0.34799999 0.63999999
-3.8699999 -11.778 -0.34799999 0.68000001
-3.836 -11.798 -0.34799999 0.67000002
-3.7980001 -11.808 -0.34799999 0.68000001
-3.7869999 -11.902 -0.352 0.63999999
-3.9070001 -12.547 -0.38100001 0.55000001
-3.7320001 -12.187 -0.36300001 0.56999999
-3.698 -12.214 -0.36399999 0.66000003
-3.6849999 -12.312 -0.368 0.36000001
-3.6059999 -12.185 -0.36199999 0.18000001
-3.4949999 -12.163 -0.359 0.69999999
-3.447 -12.138 -0.35800001 0.31999999
-3.483 -12.412 -0.37 0.14
-3.2119999 -11.593 -0.331 0.49000001
-3.3499999 -12.235 -0.361 0.23
-3.306 -12.224 -0.36000001 0.16
-3.3110001 -12.395 -0.36700001 0.75
-3.188 -12.014 -0.34900001 0.34
-3.128 -11.941 -0.345 0.43000001
-3.0780001 -11.9 -0.34299999 0.74000001
-3.145 -12.316 -0.36199999 0.38
-3.096 -12.285 -0.36000001 0.31999999
-2.9779999 -11.979 -0.345 0.37
-2.9400001 -11.987 -0.345 0.55000001
-2.925 -12.009 -0.34599999 0.58999997
-2.8829999 -12 -0.345 0.51999998
-2.842 -11.994 -0.345 0.66000003
-2.809 -12.024 -0.34599999 0.46000001
-0.113 -13.74 -0.40799999 0.43000001
-0.092 -13.722 -0.40700001 0.52999997
-0.048 -13.7 -0.40599999 0.54000002
-0.0049999999 -13.689 -0.405 0.52999997
0.037999999 -13.674 -0.405 0.47999999
0.081 -13.658 -0.40400001 0.56
0.124 -13.658 -0.40400001 0.52999997
0.145 -13.634 -0.403 0.73000002
0.18799999 -13.659 -0.40400001 0.5
22.66 -34.383999 -1.628 0
22.344999 -33.674999 -1.594 0.059999999
22.391001 -33.514999 -1.589 0.12
22.667999 -33.814999 -1.607 0
22.788 -33.764999 -1.608 0
-8.5550003 -7.9580002 -0.38299999 0.64999998
-8.5360003 -7.9899998 -0.384 0.41
-8.5050001 -8.0120001 -0.38299999 0.2
-8.4680004 -8.0270004 -0.38299999 0.20999999
-8.4160004 -8.0279999 -0.38100001 0.62
-8.4049997 -8.0419998 -0.38100001 0.47999999
-8.3809996 -8.0699997 -0.38100001 0.30000001
-8.3610001 -8.1020002 -0.38100001 0.28999999
-8.3439999 -8.1359997 -0.382 0.30000001
-8.3140001 -8.158 -0.382 0.27000001
-8.2869997 -8.1829996 -0.38100001 0.17
-8.2880001 -8.2360001 -0.38299999 0.28
-8.2740002 -8.2469997 -0.38299999 0.60000002
-8.2519999 -8.2779999 -0.384 0.28
-8.2600002 -8.3380003 -0.38600001 0.43000001
-8.2360001 -8.3660002 -0.38600001 0.60000002
-11.955 -12.237 -0.65600002 0.23999999
-11.905 -12.263 -0.65499997 0.38999999
-11.875 -12.309 -0.65499997 0.34999999
-11.857 -12.329 -0.65499997 0.58999997
-12.848 -15.312 -0.80000001 0.47999999
-12.699 -15.231 -0.792 0.31999999
-12.573 -15.177 -0.78600001 0.31999999
-12.535 -15.228 -0.787 0.47
-12.532 -15.273 -0.78899997 0.25999999
-12.48 -15.308 -0.78799999 0.60000002
-11.66 -14.391 -0.727 0.28
-12.414 -15.423 -0.79100001 0.34999999
-12.376 -15.476 -0.792 0.41
-12.346 -15.538 -0.79299998 0.41
-12.31 -15.593 -0.79400003 0.44999999
-12.323 -15.661 -0.79699999 0.5
-12.198 -15.602 -0.79100001 0.31999999
-12.146 -15.637 -0.79100001 0.17
-12.801 -16.59 -0.84899998 0.36000001
-11.725 -15.291 -0.764 0.18000001
-11.568 -15.184 -0.755 0.25999999
-11.674 -15.373 -0.76599997 0.5
-11.498 -15.24 -0.755 0.36000001
-11.352 -15.145 -0.74699998 0.44
-11.279 -15.147 -0.745 0.28
-11.192 -15.129 -0.74199998 0.55000001
-11.181 -15.214 -0.745 0.27000001
-10.856 -14.868 -0.72100002 0.55000001
-10.755 -14.779 -0.71399999 0.22
-10.68 -14.772 -0.71200001 0.25
-10.482 -14.594 -0.699 0.52999997
-10.583 -14.834 -0.71200001 0.11
-7.7950001 -11.061 -0.47600001 0.19
-7.7319999 -11.045 -0.47400001 0.31999999
-7.698 -11.032 -0.472 0.38
-7.6490002 -11.037 -0.47099999 0.41
-7.6100001 -11.054 -0.47 0.55000001
-7.5929999 -11.179 -0.47499999 0.62
-7.5910001 -11.253 -0.47799999 0.30000001
-11.367 -16.93 -0.81999999 0.30000001
-9.1389999 -13.695 -0.62300003 0.19
-9.0900002 -13.716 -0.62300003 0.38
-9.0550003 -13.756 -0.62300003 0.41999999
-10.873 -16.641001 -0.79500002 0.28999999
-10.789 -16.625999 -0.792 0.33000001
-10.636 -16.504 -0.78200001 0.36000001
-10.563 -16.447001 -0.778 0.31
-10.518 -16.49 -0.77899998 0.44999999
-10.506 -16.587 -0.78200001 0.55000001
-8.2559996 -13.115 -0.57499999 0.17
-8.1780005 -13.082 -0.57099998 0.33000001
-8.1440001 -13.119 -0.57200003 0.31999999
-8.1120005 -13.16 -0.57300001 0.49000001
-8.1090002 -13.202 -0.57499999 0.34999999
-10.049 -16.488001 -0.76599997 0.30000001
-9.8149996 -16.218 -0.74800003 0.34
-9.717 -16.17 -0.74400002 0.36000001
-9.6359997 -16.149 -0.741 0.16
-7.915 -13.447 -0.57999998 0.47999999
-7.9070001 -13.482 -0.58099997 0.30000001
-7.9130001 -13.591 -0.58600003 0.47999999
-5.829 -10.071 -0.38100001 0.25
-5.7690001 -10.039 -0.37799999 0.46000001
-5.7360001 -10.055 -0.37799999 0.22
-5.7249999 -10.11 -0.38 0.57999998
-5.737 -10.243 -0.38600001 0.5
-6.0079999 -10.81 -0.41800001 0.47
-8.6049995 -15.621 -0.69199997 0.38
-8.4289999 -15.415 -0.67900002 0.17
-8.4130001 -15.503 -0.68199998 0.43000001
-8.3360004 -15.477 -0.67900002 0.16
-8.2679996 -15.407 -0.67500001 0.56
-8.1300001 -15.265 -0.66500002 0.25
-8.0450001 -15.22 -0.66100001 0.37
-7.98 -15.211 -0.65899998 0.27000001
-7.9419999 -15.256 -0.66000003 0.2
-7.8629999 -15.22 -0.65700001 0
-6.0580001 -11.805 -0.463 0.13
-6.026 -11.787 -0.461 0.27000001
-5.9640002 -11.756 -0.45899999 0.19
-5.8870001 -11.696 -0.454 0.31
-5.8260002 -11.665 -0.45100001 0.31999999
-5.763 -11.631 -0.44800001 0.27000001
-5.7350001 -11.665 -0.449 0.16
-7.2579999 -14.838 -0.62599999 0.57999998
-5.6869998 -11.708 -0.44999999 0.15000001
-5.631 -11.685 -0.44800001 0.61000001
-6.9380002 -14.527 -0.60500002 0.22
-6.8990002 -14.563 -0.60600001 0.51999998
-6.829 -14.534 -0.60299999 0.15000001
-6.7189999 -14.416 -0.59500003 0.36000001
-6.665 -14.36 -0.59200001 0.22
-6.6240001 -14.39 -0.59200001 0.16
-6.619 -14.5 -0.597 0.56999999
-6.5510001 -14.469 -0.59399998 0.23
-6.5170002 -14.515 -0.59600002 0.16
-6.4860001 -14.569 -0.597 0.23999999
-6.4190001 -14.48 -0.59200001 0.43000001
-6.4239998 -14.615 -0.59799999 0.38
-6.4000001 -14.687 -0.60100001 0.46000001
-6.211 -14.375 -0.583 0.20999999
-5.4489999 -12.713 -0.491 0.49000001
-5.349 -12.588 -0.48300001 0.36000001
-5.2969999 -12.574 -0.48199999 0.52999997
-5.2719998 -12.571 -0.48100001 0.40000001
-5.2290001 -12.578 -0.48100001 0.43000001
-5.1859999 -12.587 -0.47999999 0.43000001
-5.1420002 -12.592 -0.47999999 0.44999999
-5.1009998 -12.603 -0.479 0.44
-5.0650001 -12.63 -0.47999999 0.41999999
-5.0279999 -12.651 -0.47999999 0.55000001
-5.0560002 -12.78 -0.48699999 0.34
-4.9980001 -12.751 -0.484 0.34999999
-4.9499998 -12.746 -0.48300001 0.41
-4.9070001 -12.754 -0.48300001 0.47
-4.8969998 -12.85 -0.48699999 0.63
-5.2020001 -13.786 -0.53600001 0.25999999
-5.2969999 -14.173 -0.55599999 0.14
-5.3039999 -14.261 -0.56099999 0.43000001
-5.2399998 -14.225 -0.55800003 0.38999999
-5.1589999 -14.142 -0.55199999 0.47999999
-5.0780001 -14.055 -0.54699999 0.31
-4.8559999 -13.708 -0.52700001 0.51999998
-4.802 -13.621 -0.52200001 0.31999999
-4.77 -13.67 -0.52399999 0.38999999
-4.0339999 -11.666 -0.41600001 0.22
-3.9809999 -11.629 -0.414 0.25999999
-3.9389999 -11.627 -0.41299999 0.2
-3.898 -11.626 -0.412 0.14
-3.902 -11.761 -0.419 0.18000001
-3.878 -11.75 -0.41800001 0.41999999
-3.839 -11.757 -0.41800001 0.44
-3.802 -11.767 -0.41800001 0.41
-3.767 -11.786 -0.41800001 0.67000002
-3.78 -11.958 -0.426 0.22
-3.7679999 -12.05 -0.43099999 0.62
-3.743 -12.104 -0.433 0.36000001
-3.73 -12.131 -0.43399999 0.47999999
-3.6140001 -11.884 -0.41999999 0.58999997
-3.5669999 -11.863 -0.419 0.30000001
-3.51 -11.807 -0.41499999 0.55000001
-3.4649999 -11.791 -0.414 0.25999999
-3.4070001 -11.731 -0.41 0.51999998
-3.368 -11.732 -0.41 0.25
-3.3329999 -11.68 -0.40599999 0.49000001
-3.296 -11.688 -0.40599999 0.36000001
-3.263 -11.714 -0.40700001 0.61000001
-3.191 -11.595 -0.40000001 0.14
-3.21 -11.811 -0.41100001 0.28999999
-3.174 -11.825 -0.41100001 0.51999998
-3.1670001 -11.874 -0.414 0.34
-3.1329999 -11.894 -0.414 0.62
-3.092 -11.89 -0.414 0.34
-3.0599999 -11.921 -0.41499999 0.44
-3.0250001 -11.94 -0.41499999 0.41
-2.993 -11.971 -0.41600001 0.55000001
-2.954 -11.979 -0.41600001 0.28999999
-2.9330001 -11.973 -0.41600001 0.41
-2.895 -11.979 -0.41499999 0.56
-2.8540001 -11.974 -0.41499999 0.34
-2.8080001 -11.946 -0.41299999 0.66000003
-0.168 -13.695 -0.484 0.46000001
-0.125 -13.677 -0.48300001 0.37
-0.103 -13.657 -0.48199999 0.54000002
-0.059999999 -13.642 -0.48199999 0.34999999
-0.017999999 -13.624 -0.48100001 0.57999998
0.025 -13.608 -0.47999999 0.38
0.068000004 -13.606 -0.47999999 0.41
0.11 -13.584 -0.479 0.47
0.132 -13.583 -0.479 0.41999999
0.175 -13.597 -0.479 0.41999999
0.21799999 -13.614 -0.47999999 0.47
0.26100001 -13.619 -0.48100001 0.58999997
-8.6230001 -7.994 -0.46200001 0.14
-8.5419998 -7.9439998 -0.45699999 0.28
-8.5200005 -7.973 -0.45699999 0.22
-8.5120001 -8.0170002 -0.458 0.27000001
-8.4359999 -7.9949999 -0.454 0.28999999
-8.4049997 -8.0159998 -0.454 0.43000001
-8.3809996 -8.0439997 -0.454 0.38
-8.3360004 -8.0509996 -0.45199999 0.43000001
-8.335 -8.0749998 -0.45300001 0.36000001
-8.335 -8.1260004 -0.45500001 0.34
-8.3009996 -8.1440001 -0.45500001 0.41
-8.2880001 -8.1829996 -0.456 0.41999999
-8.2749996 -8.2209997 -0.45699999 0.41999999
-8.2489996 -8.2469997 -0.45699999 0.41
-8.2469997 -8.2969999 -0.45899999 0.47999999
-8.2460003 -8.3210001 -0.45899999 0.38999999
-8.2080002 -8.3360004 -0.45899999 0.58999997
-8.1999998 -8.3800001 -0.46000001 0.37
-12.078 -12.403 -0.77600002 0.43000001
-12.036 -12.438 -0.77600002 0.20999999
-11.844 -12.318 -0.76300001 0.56999999
-12.817 -15.118 -0.91799998 0
-12.574 -15.023 -0.90499997 0.13
-12.484 -15.011 -0.90100002 0.17
-12.419 -15.029 -0.89899999 0
-12.378 -15.076 -0.89999998 0.13
-12.361 -15.103 -0.90100002 0.15000001
-11.637 -14.404 -0.84399998 0.56
-12.045 -15.004 -0.88499999 0.14
-12.05 -15.107 -0.88999999 0.15000001
-11.716 -14.88 -0.86799997 0.34
-11.581 -14.756 -0.85799998 0.31
-11.534 -14.792 -0.85799998 0.61000001
-11.509 -14.855 -0.86000001 0.34
-11.436 -14.858 -0.85699999 0.40000001
-11.279 -14.75 -0.847 0.16
-10.969 -14.439 -0.82200003 0.27000001
-10.938 -14.492 -0.824 0.34999999
-10.928 -14.527 -0.82499999 0.27000001
-10.808 -14.462 -0.81800002 0.25999999
-10.731 -14.453 -0.815 0.31
-10.706 -14.515 -0.81699997 0.17
-10.559 -14.411 -0.80699998 0.49000001
-10.546 -14.487 -0.81 0.38
-10.484 -14.45 -0.80699998 0.47999999
-10.37 -14.388 -0.80000001 0.43000001
-10.308 -14.398 -0.79799998 0.27000001
-7.8400002 -11.034 -0.56199998 0.23
-7.763 -10.998 -0.55800003 0.34
-7.7090001 -10.995 -0.55599999 0.34
-7.6500001 -10.985 -0.55400002 0.56999999
-7.6290002 -10.992 -0.55400002 0.38999999
-7.5830002 -10.999 -0.55299997 0.58999997
-7.5510001 -11.027 -0.55299997 0.40000001
-7.5050001 -11.034 -0.55199999 0.62
-7.5149999 -11.123 -0.55599999 0.23
-9.4329996 -14.045 -0.75400001 0.44999999
-9.5200005 -14.27 -0.76700002 0.57999998
-9.0930004 -13.679 -0.72600001 0.14
-9.0249996 -13.669 -0.72299999 0.23
-8.9870005 -13.706 -0.72399998 0.38
-8.9589996 -13.757 -0.72500002 0.31
-8.8050003 -13.614 -0.71399999 0.36000001
-8.8690004 -13.808 -0.72500002 0.60000002
-8.6070004 -13.495 -0.70200002 0.19
-8.6929998 -13.675 -0.713 0.55000001
-8.6370001 -13.682 -0.71200001 0.31
-8.4630003 -13.501 -0.69800001 0.58999997
-8.2489996 -13.253 -0.68000001 0.14
-8.2250004 -13.308 -0.68199998 0.41
-8.3409996 -13.589 -0.699 0.34
-8.3450003 -13.644 -0.70099998 0.55000001
-9.8120003 -16.146 -0.86500001 0.47999999
-9.6359997 -15.97 -0.852 0.12
-9.4390001 -15.757 -0.83600003 0.41
-9.3450003 -15.711 -0.83099997 0.25
-5.882 -10.05 -0.456 0.27000001
-5.8400002 -10.015 -0.45300001 0.40000001
-5.7849998 -9.993 -0.44999999 0.36000001
-5.7360001 -9.9799995 -0.44800001 0.36000001
-5.697 -9.9860001 -0.447 0.51999998
-5.6700001 -10.011 -0.44800001 0.40000001
-5.6339998 -10.022 -0.447 0.41999999
-5.5949998 -10.026 -0.44600001 0.63999999
-5.7119999 -10.271 -0.46200001 0.27000001
-6.0650001 -10.984 -0.50700003 0.55000001
-8.441 -15.379 -0.78899997 0.33000001
-8.29 -15.218 -0.77700001 0.27000001
-8.0930004 -14.969 -0.759 0.14
-8.1269999 -15.145 -0.76899999 0.50999999
-8.0640001 -15.084 -0.764 0.2
-8.0089998 -15.095 -0.76300001 0.38
-7.8010001 -14.817 -0.74400002 0.16
-7.7379999 -14.811 -0.74199998 0.16
-7.619 -14.695 -0.73299998 0.34
-7.5440001 -14.664 -0.73000002 0.44999999
-7.4679999 -14.629 -0.72600001 0.55000001
-6.3080001 -12.414 -0.58399999 0
-5.8400002 -11.678 -0.53500003 0.28
-5.7719998 -11.633 -0.53100002 0.23
-5.7309999 -11.643 -0.53100002 0.36000001
-5.7059999 -11.684 -0.53200001 0.31999999
-5.7059999 -11.73 -0.53500003 0.22
-5.6370001 -11.682 -0.52999997 0.58999997
-6.816 -14.226 -0.68900001 0.27000001
-6.7579999 -14.22 -0.68699998 0.41999999
-6.7059999 -14.225 -0.68599999 0.2
-6.6989999 -14.326 -0.69099998 0.41
-6.6529999 -14.345 -0.69099998 0.37
-6.6339998 -14.362 -0.69199997 0.27000001
-6.5560002 -14.431 -0.69300002 0.38
-6.4770002 -14.379 -0.68900001 0.57999998
-6.4320002 -14.399 -0.68900001 0.37
-6.3410001 -14.317 -0.68199998 0.44
-6.2509999 -14.235 -0.676 0.55000001
-6.1550002 -14.076 -0.66600001 0.16
-6.0809999 -14.028 -0.662 0.13
-5.4679999 -12.729 -0.57999998 0.36000001
-5.3590002 -12.584 -0.56999999 0.34999999
-5.3060002 -12.57 -0.56900001 0.5
-5.2620001 -12.575 -0.56800002 0.40000001
-5.217 -12.579 -0.56699997 0.41
-5.1880002 -12.565 -0.56599998 0.41999999
-5.1420002 -12.565 -0.565 0.41999999
-5.1059999 -12.59 -0.565 0.43000001
-5.0679998 -12.61 -0.565 0.44
-5.0289998 -12.627 -0.56599998 0.64999998
-5.0510001 -12.799 -0.57499999 0.34999999
-5.1069999 -13 -0.58700001 0.23999999
-4.9910002 -12.823 -0.57499999 0.38999999
-4.9289999 -12.784 -0.57200003 0.38999999
-4.8850002 -12.788 -0.57099998 0.43000001
-5.125 -13.539 -0.616 0.37
-5.0879998 -13.57 -0.61699998 0.47
-5.0580001 -13.62 -0.61900002 0.47999999
-5.2750001 -14.27 -0.65700001 0.44999999
-5.1799998 -14.149 -0.64899999 0.47999999
-5.0710001 -13.991 -0.639 0.34
-4.5120001 -12.579 -0.55299997 0.25
-4.875 -13.718 -0.62 0.36000001
-4.8130002 -13.68 -0.61699998 0.25999999
-4.7389998 -13.607 -0.61199999 0.56999999
-4.0279999 -11.636 -0.493 0.2
-3.984 -11.626 -0.49200001 0.27000001
-3.9289999 -11.586 -0.48899999 0.14
-3.891 -11.592 -0.48899999 0.28999999
-3.8540001 -11.603 -0.48800001 0.16
-3.862 -11.751 -0.49700001 0.22
-3.8269999 -11.769 -0.49700001 0.44
-3.809 -11.777 -0.49700001 0.46000001
-3.773 -11.791 -0.49700001 0.61000001
-3.7479999 -11.841 -0.49900001 0.46000001
-4.0819998 -13.029 -0.56900001 0.30000001
-4.039 -13.036 -0.56900001 0.40000001
-3.9979999 -13.049 -0.56900001 0.47
-3.954 -12.977 -0.56400001 0.31
-3.605 -11.975 -0.50400001 0.28999999
-3.5239999 -11.84 -0.49599999 0.19
-3.47 -11.794 -0.49200001 0.34
-3.4100001 -11.728 -0.48800001 0.18000001
-3.362 -11.701 -0.48500001 0.36000001
-3.309 -11.653 -0.48199999 0.23
-3.2820001 -11.628 -0.47999999 0.2
-3.2390001 -11.617 -0.479 0.31
-3.191 -11.583 -0.47600001 0.30000001
-3.181 -11.689 -0.48199999 0.25
-3.2709999 -12.169 -0.50999999 0.2
-3.2839999 -12.369 -0.52100003 0.25999999
-3.2550001 -12.416 -0.523 0.30000001
-3.2349999 -12.419 -0.523 0.40000001
-3.184 -12.386 -0.51999998 0.54000002
-3.1289999 -12.332 -0.51599997 0.38
-3.0680001 -12.255 -0.51099998 0.15000001
-3.0239999 -12.239 -0.50999999 0.33000001
-2.927 -12.01 -0.49599999 0.30000001
-2.8729999 -11.955 -0.49200001 0.63999999
-2.5250001 -10.593 -0.41299999 0.20999999
-2.8180001 -11.973 -0.493 0.41
-2.777 -11.968 -0.49200001 0.61000001
-0.221 -13.682 -0.57099998 0.30000001
-0.178 -13.659 -0.56900001 0.61000001
-0.13500001 -13.683 -0.57099998 0.40000001
-0.092 -13.681 -0.57099998 0.41999999
-0.07 -13.644 -0.56900001 0.58999997
-0.027000001 -13.626 -0.56800002 0.38999999
0.015 -13.626 -0.56800002 0.47999999
0.057999998 -13.598 -0.56599998 0.41
0.101 -13.595 -0.56599998 0.47
0.14300001 -13.595 -0.56599998 0.58999997
0.186 -13.583 -0.565 0.38999999
0.208 -13.61 -0.56699997 0.57999998
0.25099999 -13.629 -0.56800002 0.38
0.294 -13.633 -0.56800002 0.62
-8.6639996 -7.9840002 -0.52600002 0.28999999
-8.6199999 -7.993 -0.52499998 0.25
-8.6140003 -8.0380001 -0.52600002 0.69999999
-8.5950003 -8.0710001 -0.52700001 0.23
-8.5200005 -8.0509996 -0.523 0.44999999
-8.4899998 -8.0740004 -0.52200001 0.46000001
-8.4650002 -8.0740004 -0.52100003 0.46000001
-8.4280005 -8.0900002 -0.51999998 0.44999999
-8.4139996 -8.1269999 -0.52100003 0.56
-8.3900003 -8.1549997 -0.52100003 0.38999999
-8.3540001 -8.1719999 -0.51999998 0.52999997
-8.3380003 -8.2080002 -0.52100003 0.47
-8.3269997 -8.2480001 -0.52200001 0.38
-8.2969999 -8.2440004 -0.52100003 0.56999999
-8.3269997 -8.3269997 -0.52600002 0.30000001
-8.2910004 -8.3430004 -0.52499998 0.33000001
-8.2620001 -8.3660002 -0.52499998 0.31999999
-11.959 -12.28 -0.85799998 0.51999998
-11.96 -12.358 -0.861 0.25999999
-11.932 -12.368 -0.86000001 0.56999999
-12.631 -14.215 -0.97399998 0.28999999
-12.506 -14.163 -0.96600002 0.58999997
-12.323 -14.045 -0.95300001 0.17
-12.21 -14.004 -0.94700003 0.43000001
-12.367 -14.275 -0.96600002 0
-10.308 -11.967 -0.77399999 0.090000004
-12.588 -14.764 -0.99800003 0.17
-12.568 -14.93 -1.005 0.34999999
-11.664 -13.942 -0.92199999 0.19
-11.418 -13.734 -0.90200001 0.40000001
-11.392 -13.792 -0.90399998 0.40000001
-11.402 -13.848 -0.90700001 0.28999999
-11.327 -13.845 -0.90399998 0.34
-11.285 -13.882 -0.90399998 0.5
-11.255 -13.935 -0.90499997 0.34
-10.995 -13.7 -0.884 0.47999999
-11.162 -13.999 -0.90499997 0.23999999
-11.298 -14.215 -0.921 0.51999998
-11.757 -14.89 -0.97100002 0.30000001
-11.613 -14.803 -0.96100003 0.27000001
-10.603 -13.601 -0.86400002 0.37
-10.572 -13.648 -0.86500001 0.22
-10.486 -13.626 -0.861 0.40000001
-10.365 -13.556 -0.85299999 0.68000001
-10.342 -13.57 -0.85299999 0.43000001
-10.29 -13.59 -0.852 0.25
-10.184 -13.537 -0.84500003 0.31
-10.124 -13.547 -0.84399998 0.22
-10.029 -13.508 -0.838 0.55000001
-10.092 -13.683 -0.84899998 0.38999999
-9.9870005 -13.629 -0.84299999 0.31
-9.8959999 -13.549 -0.83499998 0.46000001
-9.7589998 -13.449 -0.82499999 0.27000001
-9.7110004 -13.472 -0.82499999 0.34
-9.6619997 -13.494 -0.824 0.18000001
-7.8769999 -11.065 -0.63800001 0.31999999
-7.796 -11.025 -0.63300002 0.41999999
-7.744 -11.025 -0.63099998 0.36000001
-7.7220001 -11.03 -0.63 0.46000001
-7.6849999 -11.051 -0.63 0.51999998
-7.6230001 -11.036 -0.62699997 0.41
-7.5809999 -11.048 -0.62599999 0.47999999
-7.539 -11.062 -0.625 0.61000001
-7.5229998 -11.114 -0.62800002 0.38999999
-7.54 -11.214 -0.63300002 0.47999999
-8.7550001 -13.074 -0.77100003 0.55000001
-8.7309999 -13.126 -0.773 0.25999999
-8.6420002 -13.082 -0.76700002 0.23999999
-8.5970001 -13.102 -0.76700002 0.51999998
-8.6239996 -13.235 -0.77499998 0.23
-8.6049995 -13.297 -0.77700001 0.25999999
-8.5030003 -13.184 -0.76800001 0.30000001
-8.4499998 -13.193 -0.76599997 0.38999999
-8.4650002 -13.308 -0.773 0.60000002
-8.4280005 -13.343 -0.77399999 0.17
-8.2559996 -13.162 -0.75800002 0.17
-8.1809998 -13.133 -0.755 0.34999999
-8.1610003 -13.193 -0.75700003 0.56999999
-8.0790005 -13.105 -0.75 0.2
-7.9970002 -13.064 -0.745 0.23999999
-8.0249996 -13.204 -0.75300002 0.44999999
-7.9359999 -13.15 -0.74699998 0.33000001
-7.875 -13.142 -0.745 0.36000001
-7.7810001 -13.078 -0.73900002 0.37
-7.7270002 -13.08 -0.73699999 0.31
-5.9369998 -10.075 -0.52100003 0.33000001
-5.8709998 -10.035 -0.51700002 0.38999999
-5.8270001 -10.031 -0.51499999 0.34999999
-5.7789998 -10.02 -0.51300001 0.55000001
-5.7480001 -10.039 -0.51300001 0.38999999
-5.711 -10.047 -0.51200002 0.41
-5.697 -10.059 -0.51300001 0.41
-5.6659999 -10.079 -0.51300001 0.41
-5.6259999 -10.081 -0.51200002 0.66000003
-6.1230001 -11.058 -0.579 0.20999999
-7.039 -12.817 -0.70200002 0.63999999
-7.0630002 -12.956 -0.70999998 0.25999999
-6.9530001 -12.85 -0.70099998 0.56
-8.0179996 -14.884 -0.84299999 0.25999999
-7.9260001 -14.824 -0.83700001 0.23
-7.8429999 -14.78 -0.83200002 0.18000001
-7.6589999 -14.654 -0.81999999 0.58999997
-7.5879998 -14.63 -0.81699997 0.28999999
-7.4899998 -14.551 -0.81 0.38999999
-7.4419999 -14.515 -0.80599999 0.34
-7.415 -14.574 -0.80900002 0.44999999
-7.2789998 -14.418 -0.796 0.46000001
-5.862 -11.692 -0.60600001 0.20999999
-5.803 -11.666 -0.60299999 0.34
-5.7709999 -11.693 -0.60399997 0.38
-5.7680001 -11.734 -0.60600001 0.31999999
-5.75 -11.79 -0.60900003 0.28999999
-5.7010002 -11.783 -0.60699999 0.57999998
-6.8049998 -14.191 -0.77100003 0.15000001
-6.7839999 -14.261 -0.77399999 0.40000001
-6.7420001 -14.29 -0.77499998 0.25
-6.7090001 -14.336 -0.77600002 0.2
-6.632 -14.229 -0.76800001 0.31
-6.625 -14.333 -0.77399999 0.49000001
-6.5669999 -14.325 -0.77200001 0.25
-6.467 -14.224 -0.764 0.56
-6.4499998 -14.306 -0.76800001 0.2
-6.2360001 -13.947 -0.74199998 0.61000001
-6.1869998 -13.953 -0.74199998 0.31999999
-6.1430001 -13.914 -0.73799998 0.2
-6.079 -13.887 -0.73500001 0.43000001
-6.046 -13.93 -0.73699999 0.27000001
-5.4499998 -12.659 -0.64999998 0.18000001
-5.382 -12.61 -0.64499998 0.51999998
-5.3379998 -12.617 -0.64499998 0.36000001
-5.2800002 -12.588 -0.64200002 0.57999998
-5.263 -12.604 -0.64200002 0.33000001
-5.2179999 -12.607 -0.64099997 0.41999999
-5.171 -12.607 -0.63999999 0.47999999
-5.1360002 -12.632 -0.64099997 0.47
-5.0939999 -12.645 -0.64099997 0.68000001
-5.0739999 -12.709 -0.64399999 0.30000001
-5.164 -12.995 -0.662 0.61000001
-5.1669998 -13.123 -0.67000002 0.33000001
-5.2399998 -13.435 -0.68900001 0.49000001
-5.2059999 -13.472 -0.69099998 0.37
-5.1339998 -13.412 -0.68599999 0.43000001
-5.0960002 -13.439 -0.68599999 0.46000001
-5.0619998 -13.476 -0.68800002 0.44
-5.046 -13.497 -0.68900001 0.41
-4.9959998 -13.494 -0.68699998 0.52999997
-4.947 -13.491 -0.68599999 0.46000001
-4.9390001 -13.6 -0.69199997 0.5
-4.5560002 -12.664 -0.63 0.23
-4.9180002 -13.813 -0.704 0.34999999
-4.8109999 -13.65 -0.69300002 0.34
-4.7779999 -13.621 -0.69 0.44
-4.7470002 -13.672 -0.69300002 0.66000003
-4.026 -11.824 -0.56999999 0.64999998
-3.9809999 -11.812 -0.56800002 0.23
-3.9419999 -11.821 -0.56800002 0.34999999
-3.9159999 -11.804 -0.56699997 0.46000001
-3.8800001 -11.818 -0.56699997 0.47999999
-3.8429999 -11.83 -0.56699997 0.46000001
-3.802 -11.833 -0.56599998 0.63999999
-4.2259998 -13.305 -0.66100001 0.38999999
-4.1149998 -13.097 -0.64700001 0.34999999
-4.072 -13.104 -0.64600003 0.38
-4.0560002 -13.124 -0.64700001 0.44999999
-4.0019999 -13.096 -0.64499998 0.69999999
-3.9330001 -13.015 -0.63800001 0.20999999
-3.8510001 -12.888 -0.62900001 0.51999998
-3.7980001 -12.86 -0.62699997 0.31
-3.74 -12.81 -0.62300003 0.50999999
-3.717 -12.805 -0.62199998 0.25
-3.658 -12.751 -0.61799997 0.47999999
-3.6070001 -12.724 -0.61500001 0.36000001
-3.546 -12.658 -0.611 0.56999999
-3.221 -11.632 -0.54400003 0.16
-3.437 -12.572 -0.60399997 0.34
-3.3829999 -12.529 -0.60000002 0.40000001
-3.3529999 -12.496 -0.59799999 0.34
-3.3039999 -12.47 -0.59500003 0.44
-3.2620001 -12.47 -0.59500003 0.38
-3.211 -12.434 -0.59200001 0.58999997
-3.1530001 -12.371 -0.58700001 0.41
-2.671 -10.602 -0.47400001 0.15000001
-3.052 -12.293 -0.58099997 0.38999999
-3.027 -12.275 -0.579 0.28999999
-2.914 -11.978 -0.56 0.68000001
-2.563 -10.666 -0.47600001 0.23999999
-2.839 -11.998 -0.56 0.43000001
-2.8039999 -12.014 -0.56099999 0.56
-0.28600001 -14.264 -0.68000001 0.62
-0.19 -13.727 -0.64700001 0.57999998
-0.147 -13.777 -0.64999998 0.25
-0.125 -13.722 -0.64600003 0.56
-0.082000002 -13.69 -0.64399999 0.38999999
-0.039000001 -13.686 -0.64399999 0.43000001
0.0040000002 -13.662 -0.64300001 0.41999999
0.046999998 -13.65 -0.64200002 0.5
0.090000004 -13.636 -0.64099997 0.43000001
0.133 -13.676 -0.64300001 0.44
0.154 -13.638 -0.64099997 0.41
0.197 -13.669 -0.64300001 0.46000001
0.23999999 -13.678 -0.64399999 0.47999999
0.28400001 -13.687 -0.64399999 0.66000003
-12.416 -11.316 -0.954 0.23999999
-8.5930004 -7.9419999 -0.60299999 0.34
-8.5719995 -7.947 -0.602 0.61000001
-8.5869999 -8.0109997 -0.60600001 0.38999999
-8.5030003 -7.9829998 -0.60000002 0.57999998
-8.4820004 -8.0139999 -0.60100001 0.40000001
-8.4440002 -8.0279999 -0.60000002 0.51999998
-8.3929996 -8.0299997 -0.597 0.36000001
-8.3629999 -8.052 -0.597 0.46000001
-8.3529997 -8.0679998 -0.597 0.5
-8.3190002 -8.0860004 -0.59600002 0.41
-8.3009996 -8.1190004 -0.597 0.31999999
-8.2910004 -8.1599998 -0.59799999 0.34999999
-8.2629995 -8.1829996 -0.59799999 0.31999999
-8.2510004 -8.2229996 -0.59899998 0.20999999
-8.3000002 -8.3240004 -0.60699999 0.34
-8.2670002 -8.3170004 -0.60500002 0.38999999
-8.2399998 -8.342 -0.60500002 0.31
-8.2620001 -8.4169998 -0.60900003 0.56999999
-11.802 -12.083 -0.95999998 0.31
-11.76 -12.116 -0.95999998 0.20999999
-11.581 -12.083 -0.949 0.52999997
-11.567 -12.106 -0.94999999 0.22
-11.535 -12.149 -0.95099998 0.20999999
-12.275 -13.941 -1.076 0.52999997
-12.256 -14.008 -1.0779999 0.2
-12.189 -14.019 -1.076 0.63999999
-12.326 -14.267 -1.095 0
-10.254 -11.951 -0.88099998 0
-12.018 -14.045 -1.0700001 0.1
-13.489 -15.961 -1.2359999 0.19
-13.263 -15.794 -1.217 0.14
-11.328 -13.669 -1.0190001 0.31999999
-11.121 -13.506 -1.002 0.41
-11.095 -13.517 -1.001 0.25999999
-11.055 -13.555 -1.001 0.47999999
-11.012 -13.59 -1.001 0.41999999
-10.972 -13.627 -1.002 0.31999999
-10.954 -13.693 -1.0039999 0.54000002
-10.924 -13.743 -1.006 0.25
-10.665 -13.505 -0.98199999 0.25999999
-10.566 -13.423 -0.97299999 0.23999999
-10.415 -13.318 -0.96100003 0.46000001
-10.3 -13.256 -0.95300001 0.30000001
-10.169 -13.173 -0.94300002 0.38999999
-10.035 -13.085 -0.93199998 0.34999999
-9.9139996 -13.012 -0.92299998 0.41999999
-9.8039999 -12.952 -0.91600001 0.27000001
-9.7259998 -12.891 -0.90899998 0.61000001
-9.698 -12.939 -0.91000003 0.28999999
-9.5290003 -12.797 -0.89600003 0.41
-9.4040003 -12.713 -0.88599998 0.28999999
-9.1969995 -12.516 -0.86699998 0.61000001
-9.5039997 -13.018 -0.90700001 0.36000001
-9.1169996 -12.572 -0.866 0.38999999
-9.1450005 -12.653 -0.87199998 0.20999999
-9.2849998 -12.931 -0.89300001 0.58999997
-7.8899999 -11.068 -0.73299998 0.28999999
-7.8140001 -11.034 -0.72799999 0.38999999
-7.7329998 -10.994 -0.72299999 0.38
-7.684 -10.997 -0.72100002 0.50999999
-7.6570001 -10.996 -0.72000003 0.51999998
-7.6259999 -11.024 -0.72000003 0.5
-7.553 -10.993 -0.71600002 0.5
-7.513 -11.008 -0.71499997 0.55000001
-7.4699998 -11.02 -0.71399999 0.68000001
-7.5079999 -11.151 -0.72299999 0.34
-7.493 -11.204 -0.72500002 0.68000001
-7.573 -11.362 -0.73699999 0.19
-7.4959998 -11.322 -0.73199999 0.51999998
-7.4879999 -11.389 -0.736 0.22
-7.4819999 -11.458 -0.73900002 0.63
-8.3179998 -12.82 -0.84899998 0.25
-8.2939997 -12.872 -0.85100001 0.41999999
-8.2200003 -12.846 -0.847 0.55000001
-8.2049999 -12.865 -0.84799999 0.37
-8.0290003 -12.679 -0.82999998 0.18000001
-8.0550003 -12.809 -0.83899999 0.31
-8 -12.81 -0.83700001 0.66000003
-7.8150001 -12.603 -0.81800002 0.28
-7.6570001 -12.436 -0.80299997 0.30000001
-7.625 -12.427 -0.801 0.38
-7.599 -12.472 -0.80299997 0.36000001
-7.5700002 -12.513 -0.80400002 0.18000001
-7.5180001 -12.516 -0.80199999 0.60000002
-7.46 -12.509 -0.80000001 0.40000001
-7.4120002 -12.517 -0.79900002 0.69999999
-5.9039998 -10.052 -0.60000002 0.28999999
-5.8460002 -9.9899998 -0.59399998 0.40000001
-5.8010001 -9.9849997 -0.59200001 0.37
-5.763 -9.993 -0.59200001 0.43000001
-5.7249999 -9.9980001 -0.59100002 0.44
-5.6960001 -10.02 -0.59100002 0.44999999
-5.6620002 -10.034 -0.59100002 0.68000001
-5.6370001 -10.064 -0.59200001 0.27000001
-5.6139998 -10.059 -0.58999997 0.55000001
-5.5960002 -10.101 -0.59200001 0.38
-6.954 -12.633 -0.79000002 0.31999999
-6.882 -12.595 -0.78500003 0.57999998
-6.7509999 -12.449 -0.77200001 0.33000001
-6.71 -12.468 -0.77200001 0.36000001
-6.5669999 -12.249 -0.75400001 0.30000001
-6.553 -12.315 -0.75800002 0.41
-6.5139999 -12.335 -0.75800002 0.40000001
-6.48 -12.365 -0.75800002 0.57999998
-6.461 -12.422 -0.76099998 0.44999999
-6.4660001 -12.527 -0.76800001 0.75999999
-6.2930002 -12.289 -0.74800003 0.38
-6.2719998 -12.391 -0.75300002 0.14
-6.0560002 -12.06 -0.72600001 0.58999997
-7.1750002 -14.389 -0.90399998 0.38999999
-5.8039999 -11.837 -0.70499998 0.75
-6.9439998 -14.263 -0.889 0.18000001
-5.6729999 -11.71 -0.69300002 0.62
-5.6550002 -11.765 -0.69599998 0.14
-6.7290001 -14.103 -0.87300003 0.40000001
-6.664 -14.079 -0.87 0.31999999
-6.5960002 -14.051 -0.866 0.56999999
-5.5170002 -11.857 -0.69800001 0.2
-5.4920001 -11.902 -0.69999999 0.33000001
-5.4569998 -11.876 -0.69700003 0.52999997
-5.3969998 -11.842 -0.69300002 0.46000001
-6.2179999 -13.748 -0.83600003 0.20999999
-6.1500001 -13.713 -0.83200002 0.34999999
-6.1290002 -13.782 -0.83600003 0.69999999
-6.0570002 -13.794 -0.83399999 0.56999999
-5.9689999 -13.712 -0.82700002 0.25
-5.9099998 -13.693 -0.824 0.56999999
-5.381 -12.582 -0.73900002 0.33000001
-5.323 -12.555 -0.736 0.5
-5.2690001 -12.537 -0.73400003 0.41
-5.2150002 -12.518 -0.73100001 0.25
-5.1960001 -12.53 -0.73100001 0.28999999
-5.152 -12.533 -0.73000002 0.28
-5.118 -12.562 -0.73100001 0.37
-5.0949998 -12.619 -0.73400003 0.33000001
-5.0560002 -12.639 -0.73400003 0.47
