# .PCD v0.7 - Point Cloud Data file format
VERSION 0.7
FIELDS x y z intensity
SIZE 4 4 4 4
TYPE F F F F
COUNT 1 1 1 1
WIDTH 1361
HEIGHT 1
VIEWPOINT 0 0 0 1 0 0 0
POINTS 1361
DATA ascii
1.817 -8.0839996 -1.723 0.33000001
1.841 -8.0699997 -1.721 0.34
1.87 -8.0799999 -1.725 0.31999999
1.892 -8.0600004 -1.722 0.28
1.92 -8.0679998 -1.725 0.36000001
1.9450001 -8.0579996 -1.724 0.34
1.9579999 -8.0550003 -1.724 0.34
1.983 -8.0500002 -1.724 0.34
2.0109999 -8.0559998 -1.727 0.34
2.0320001 -8.0319996 -1.723 0.34
2.0610001 -8.0389996 -1.726 0.34
2.0880001 -8.0380001 -1.727 0.28999999
2.098 -8.0249996 -1.725 0.34999999
2.1229999 -8.0190001 -1.725 0.34
2.152 -8.0249996 -1.728 0.34
2.175 -8.0129995 -1.727 0.34
2.2019999 -8.0120001 -1.728 0.33000001
2.23 -8.0139999 -1.73 0.31999999
2.2520001 -7.9959998 -1.728 0.34
2.2620001 -7.9850001 -1.726 0.31
2.293 -7.9980001 -1.7309999 0.34
2.3169999 -7.9850001 -1.729 0.34
2.3429999 -7.9840002 -1.7309999 0.34
2.3710001 -7.9860001 -1.733 0.33000001
2.392 -7.9650002 -1.73 0.34999999
2.4200001 -7.9650002 -1.732 0.34
2.434 -7.9689999 -1.733 0.34
2.457 -7.9510002 -1.7309999 0.34
2.483 -7.9489999 -1.733 0.34999999
2.5120001 -7.9530001 -1.735 0.33000001
2.533 -7.9320002 -1.732 0.34
2.5580001 -7.9239998 -1.732 0.30000001
2.5780001 -7.9460001 -1.738 0.36000001
2.5969999 -7.9190001 -1.734 0.34999999
2.622 -7.9089999 -1.733 0.30000001
2.651 -7.914 -1.7359999 0.37
2.6689999 -7.8870001 -1.732 0.28999999
2.6989999 -7.8930001 -1.7359999 0.36000001
2.727 -7.8940001 -1.738 0.30000001
2.737 -7.882 -1.7359999 0.36000001
2.7639999 -7.881 -1.738 0.30000001
2.7939999 -7.8870001 -1.7410001 0.38
2.8139999 -7.8629999 -1.738 0.34999999
2.8369999 -7.8509998 -1.737 0.30000001
2.869 -7.862 -1.742 0.38
2.8770001 -7.8470001 -1.739 0.34
2.9030001 -7.8390002 -1.739 0.30000001
2.931 -7.8410001 -1.742 0.36000001
2.951 -7.8189998 -1.739 0.28999999
2.9779999 -7.8169999 -1.7410001 0.34999999
3.0050001 -7.8130002 -1.742 0.31
3.0250001 -7.7909999 -1.739 0.31999999
3.039 -7.7919998 -1.74 0.33000001
3.069 -7.7969999 -1.744 0.38
3.0880001 -7.7719998 -1.74 0.31
3.115 -7.77 -1.742 0.36000001
3.1400001 -7.7620001 -1.743 0.31
3.1630001 -7.7470002 -1.7410001 0.38
3.187 -7.737 -1.7410001 0.30000001
3.2030001 -7.7410002 -1.743 0.31999999
3.2219999 -7.7179999 -1.74 0.33000001
3.253 -7.724 -1.744 0.38999999
3.277 -7.7140002 -1.744 0.31999999
3.3010001 -7.7020001 -1.744 0.38
3.3280001 -7.698 -1.7460001 0.31999999
3.3380001 -7.6890001 -1.745 0.31999999
3.358 -7.6680002 -1.742 0.33000001
3.3889999 -7.6739998 -1.7460001 0.34999999
3.4130001 -7.6630001 -1.7460001 0.33000001
3.437 -7.652 -1.7460001 0.33000001
3.4619999 -7.6430001 -1.7460001 0.34999999
3.487 -7.6360002 -1.747 0.34999999
3.494 -7.618 -1.744 0.33000001
3.52 -7.612 -1.7460001 0.33000001
3.556 -7.6259999 -1.752 0.34999999
3.569 -7.592 -1.7460001 0.27000001
3.598 -7.5910001 -1.749 0.38999999
3.6210001 -7.5799999 -1.749 0.31
3.6400001 -7.5580001 -1.7460001 0.30000001
3.665 -7.5780001 -1.753 0.40000001
3.681 -7.5510001 -1.749 0.30000001
3.704 -7.5380001 -1.748 0.33000001
3.73 -7.5310001 -1.749 0.31999999
3.7609999 -7.5349998 -1.753 0.38999999
3.776 -7.506 -1.749 0.31999999
3.8039999 -7.5029998 -1.751 0.31999999
3.819 -7.5019999 -1.753 0.34
3.8399999 -7.4850001 -1.751 0.34
3.865 -7.4759998 -1.752 0.28
3.8889999 -7 -1.661 0
4.099 -7.3530002 -1.753 0
4.1100001 -7.3189998 -1.747 0
8.132 1.199 -1.781 0.30000001
8.132 1.212 -1.781 0.28999999
8.1260004 1.237 -1.781 0.28999999
8.1029997 1.2589999 -1.776 0.28999999
8.0909996 1.284 -1.775 0.28999999
8.0790005 1.308 -1.773 0.27000001
8.0369997 1.327 -1.7640001 0.27000001
8.0249996 1.3380001 -1.762 0.27000001
8.0270004 1.364 -1.763 0.25999999
8.007 1.386 -1.7589999 0.25999999
7.9949999 1.41 -1.757 0.27000001
7.9980001 1.437 -1.7589999 0.27000001
7.9759998 1.4579999 -1.755 0.25999999
7.9699998 1.47 -1.7539999 0.25999999
7.9640002 1.495 -1.7539999 0.27000001
7.961 1.52 -1.7539999 0.27000001
7.9450002 1.543 -1.752 0.27000001
7.947 1.5700001 -1.753 0.27000001
7.9499998 1.596 -1.755 0.27000001
7.9239998 1.617 -1.75 0.28
7.9289999 1.631 -1.752 0.28
7.9310002 1.6569999 -1.7539999 0.28999999
7.9169998 1.6799999 -1.752 0.28999999
7.9060001 1.704 -1.75 0.28999999
7.9039998 1.729 -1.751 0.28
7.8909998 1.752 -1.749 0.27000001
7.8909998 1.779 -1.751 0.27000001
7.9000001 1.794 -1.753 0.27000001
7.8769999 1.814 -1.749 0.27000001
7.8730001 1.84 -1.75 0.27000001
7.875 1.8660001 -1.752 0.28
7.8600001 1.8890001 -1.749 0.27000001
7.8590002 1.915 -1.751 0.27000001
7.8530002 1.939 -1.751 0.27000001
7.8330002 1.947 -1.747 0.27000001
7.829 1.972 -1.747 0.28999999
7.8379998 2.0009999 -1.751 0.28
7.816 2.0220001 -1.747 0.28
7.823 2.05 -1.75 0.27000001
7.822 2.076 -1.752 0.28999999
7.8000002 2.0829999 -1.747 0.28
7.8010001 2.109 -1.749 0.28
7.8000002 2.1359999 -1.75 0.28999999
7.776 2.155 -1.7460001 0.28999999
7.7680001 2.1789999 -1.7460001 0.30000001
7.7719998 2.207 -1.748 0.27000001
7.7480001 2.2260001 -1.744 0.27000001
7.75 2.24 -1.7460001 0.28999999
7.7410002 2.2639999 -1.745 0.28999999
7.7309999 2.2869999 -1.744 0.28999999
7.7329998 2.3139999 -1.747 0.28
7.7220001 2.3369999 -1.7460001 0.28999999
7.7140002 2.362 -1.7460001 0.27000001
7.7010002 2.3710001 -1.743 0.28
7.7049999 2.3989999 -1.7460001 0.25
7.6989999 2.4230001 -1.747 0.28999999
7.6900001 2.447 -1.7460001 0.28
7.678 2.47 -1.745 0.28
7.6500001 2.487 -1.74 0.28
7.6399999 2.5109999 -1.74 0.28999999
7.6290002 2.52 -1.738 0.28
7.619 2.543 -1.738 0.28999999
7.6059999 2.566 -1.7359999 0.30000001
7.6030002 2.5910001 -1.738 0.28999999
7.5799999 2.6099999 -1.734 0.28
7.5809999 2.6370001 -1.7359999 0.28999999
7.5640001 2.658 -1.734 0.28999999
7.5630002 2.671 -1.735 0.28999999
7.5440001 2.691 -1.732 0.28999999
7.526 2.711 -1.73 0.28
7.5139999 2.733 -1.729 0.30000001
7.513 2.76 -1.7309999 0.28999999
7.5 2.7820001 -1.73 0.28999999
7.4899998 2.7920001 -1.729 0.28999999
7.474 2.812 -1.727 0.30000001
7.467 2.836 -1.727 0.30000001
7.4640002 2.862 -1.729 0.28999999
7.4460001 2.882 -1.726 0.30000001
7.427 2.902 -1.724 0.30000001
7.4169998 2.924 -1.724 0.28999999
7.414 2.937 -1.724 0.27000001
7.3969998 2.957 -1.722 0.28999999
7.381 2.977 -1.72 0.30000001
7.3839998 3.006 -1.724 0.27000001
7.3639998 3.0239999 -1.721 0.28999999
7.3559999 3.0480001 -1.721 0.30000001
7.3530002 3.0610001 -1.722 0.28
7.3249998 3.076 -1.717 0.30000001
7.316 3.099 -1.717 0.28999999
7.3039999 3.1210001 -1.717 0.28999999
7.303 3.148 -1.719 0.25999999
7.2909999 3.1700001 -1.719 0.28
7.2649999 3.1860001 -1.715 0.30000001
7.2729998 3.2030001 -1.7180001 0.27000001
7.263 3.2260001 -1.7180001 0.28
7.244 3.2449999 -1.715 0.27000001
7.2319999 3.266 -1.715 0.28999999
7.2210002 3.289 -1.715 0.30000001
7.2069998 3.3099999 -1.714 0.30000001
7.2020001 3.322 -1.714 0.30000001
7.1900001 3.3429999 -1.714 0.28999999
7.1669998 3.3599999 -1.711 0.28999999
7.1570001 3.3829999 -1.711 0.28999999
7.1420002 3.4030001 -1.71 0.28
7.1420002 3.431 -1.712 0.25999999
7.1240001 3.45 -1.711 0.27000001
7.1139998 3.4579999 -1.709 0.28999999
7.1079998 3.483 -1.711 0.27000001
7.092 3.503 -1.709 0.28999999
7.0840001 3.527 -1.71 0.28999999
7.0640001 3.5450001 -1.7079999 0.28999999
7.053 3.5669999 -1.7079999 0.28999999
7.0370002 3.5869999 -1.706 0.28999999
7.0289998 3.5969999 -1.706 0.28999999
7.0250001 3.622 -1.7079999 0.28999999
7.0139999 3.6440001 -1.7079999 0.30000001
6.9949999 3.6630001 -1.706 0.28999999
6.9770002 3.681 -1.704 0.27000001
6.96 3.7 -1.7029999 0.28999999
6.954 3.7249999 -1.704 0.31999999
6.9559999 3.74 -1.706 0.31
6.941 3.76 -1.706 0.30000001
6.9330001 3.7839999 -1.706 0.31
6.9190001 3.8050001 -1.706 0.31
6.9120002 3.829 -1.707 0.31
6.9000001 3.8510001 -1.707 0.27000001
6.8969998 3.8640001 -1.7079999 0.28999999
6.8839998 3.885 -1.7079999 0.28999999
6.8850002 3.914 -1.711 0.31999999
6.8639998 3.931 -1.709 0.31
6.8569999 3.9549999 -1.711 0.27000001
6.848 3.9790001 -1.711 0.31999999
6.8379998 4.0019999 -1.712 0.30000001
6.8340001 4.0139999 -1.7130001 0.30000001
6.8200002 4.0339999 -1.712 0.28999999
6.8169999 4.0619998 -1.715 0.28999999
6.8039999 4.0830002 -1.715 0.28999999
6.7849998 4.0999999 -1.7130001 0.28999999
6.7719998 4.1220002 -1.7130001 0.28
6.7750001 4.138 -1.716 0.30000001
6.7620001 4.1599998 -1.716 0.28999999
6.7509999 4.1820002 -1.716 0.28999999
6.7340002 4.2010002 -1.715 0.30000001
6.7259998 4.2249999 -1.717 0.28999999
6.7030001 4.2399998 -1.714 0.28
6.7059999 4.2719998 -1.719 0.28999999
6.6919999 4.2779999 -1.717 0.30000001
6.6719999 4.2950001 -1.715 0.28
6.6669998 4.3210001 -1.717 0.28999999
6.6570001 4.3439999 -1.7180001 0.27000001
6.638 4.362 -1.717 0.28
6.6240001 4.3829999 -1.717 0.28
6.6199999 4.4099998 -1.72 0.28999999
6.6209998 4.4260001 -1.722 0.28
6.5929999 4.4369998 -1.7180001 0.28
6.5819998 4.46 -1.719 0.28999999
6.586 4.4920001 -1.724 0.27000001
6.5560002 4.5019999 -1.719 0.28
6.5419998 4.5229998 -1.719 0.27000001
6.5510001 4.5599999 -1.726 0.25999999
6.5250001 4.5570002 -1.72 0.25999999
6.5170002 4.5819998 -1.722 0.25999999
6.52 4.6149998 -1.727 0.28
6.4959998 4.6279998 -1.725 0.28
6.4809999 4.6490002 -1.725 0.28999999
6.4780002 4.677 -1.728 0.28999999
6.4450002 4.6690001 -1.72 0.28999999
6.4489999 4.7030001 -1.726 0.31999999
6.4530001 4.737 -1.7309999 0.31
6.4180002 4.7420001 -1.725 0.28999999
6.4000001 4.7600002 -1.725 0.28
6.4130001 4.8010001 -1.733 0.31
6.3860002 4.8119998 -1.729 0.31
6.3870001 4.829 -1.732 0.30000001
6.3920002 4.8639998 -1.738 0.27000001
6.3800001 4.8870001 -1.738 0.28999999
6.3509998 4.8959999 -1.734 0.28999999
6.3540001 4.9299998 -1.74 0.27000001
6.3260002 4.941 -1.7359999 0.27000001
6.3169999 4.9489999 -1.7359999 0.27000001
6.316 4.9809999 -1.74 0.28999999
6.3070002 5.006 -1.742 0.27000001
6.2909999 5.026 -1.742 0.27000001
6.2950001 5.0609999 -1.748 0.28
6.2709999 5.0749998 -1.7460001 0.27000001
6.2540002 5.0939999 -1.745 0.28999999
6.2690001 5.1220002 -1.752 0.27000001
6.2490001 5.1389999 -1.751 0.28
6.2389998 5.164 -1.753 0.28999999
6.2259998 5.1859999 -1.7539999 0.28999999
6.2020001 5.1989999 -1.752 0.28999999
6.1989999 5.23 -1.756 0.30000001
6.1900001 5.256 -1.758 0.28999999
6.1820002 5.2649999 -1.758 0.30000001
6.1739998 5.2919998 -1.761 0.30000001
6.1550002 5.309 -1.76 0.28999999
6.1300001 5.322 -1.757 0.28999999
6.131 5.3569999 -1.763 0.30000001
6.1129999 5.375 -1.762 0.30000001
6.1149998 5.3930001 -1.766 0.28
6.105 5.4190001 -1.768 0.31
6.0630002 5.4159999 -1.76 0.20999999
6.0560002 5.4439998 -1.763 0.07
-4.6209998 7.428 -1.903 0.28999999
-4.6329999 7.395 -1.898 0.28999999
-4.6409998 7.3829999 -1.897 0.30000001
-4.6669998 7.3730001 -1.898 0.31999999
-4.677 7.3369999 -1.892 0.31
-4.6950002 7.3140001 -1.89 0.28
-4.7160001 7.2979999 -1.89 0.30000001
-4.7270002 7.263 -1.8839999 0.31
-4.7389998 7.2579999 -1.885 0.28999999
-4.7729998 7.2589998 -1.8890001 0.31999999
-4.7849998 7.2280002 -1.885 0.31
-4.8010001 7.2030001 -1.882 0.31
-4.8309999 7.1989999 -1.885 0.27000001
-4.8429999 7.1680002 -1.881 0.28
-4.8639998 7.151 -1.88 0.28
-4.888 7.1620002 -1.886 0.28999999
-4.901 7.1329999 -1.882 0.30000001
-4.9260001 7.1199999 -1.882 0.28999999
-4.9520001 7.1110001 -1.8839999 0.28999999
-4.9629998 7.0799999 -1.88 0.30000001
-4.9850001 7.0630002 -1.8789999 0.31
-5.0180001 7.0630002 -1.8839999 0.28999999
-5.0300002 7.033 -1.88 0.30000001
-5.0489998 7.0359998 -1.883 0.30000001
-5.0700002 7.0180001 -1.882 0.28999999
-5.0799999 6.987 -1.878 0.28999999
-5.1069999 6.9770002 -1.88 0.31
-5.1300001 6.9619999 -1.88 0.30000001
-5.145 6.9369998 -1.877 0.30000001
-5.1589999 6.934 -1.8789999 0.31
-5.1880002 6.927 -1.882 0.28999999
-5.1919999 6.8870001 -1.875 0.30000001
-5.223 6.8829999 -1.878 0.28999999
-5.2480001 6.8709998 -1.88 0.28999999
-5.263 6.8449998 -1.877 0.28999999
-5.2820001 6.8260002 -1.876 0.28999999
-5.2950001 6.8210001 -1.877 0.30000001
-5.303 6.7870002 -1.872 0.30000001
-5.3280001 6.7750001 -1.873 0.30000001
-5.3540001 6.7639999 -1.875 0.28999999
-5.3670001 6.737 -1.872 0.28
-5.3930001 6.7259998 -1.874 0.28999999
-5.4190001 6.7150002 -1.876 0.30000001
-5.4159999 6.6900001 -1.8710001 0.28999999
-5.4380002 6.6739998 -1.8710001 0.28
-5.4650002 6.665 -1.873 0.31
-5.4790001 6.6389999 -1.8710001 0.30000001
-5.5019999 6.6240001 -1.872 0.28999999
-5.527 6.6110001 -1.873 0.30000001
-5.5370002 6.5819998 -1.869 0.28999999
-5.5479999 6.573 -1.869 0.30000001
-5.5710001 6.559 -1.87 0.28999999
-5.5900002 6.54 -1.87 0.28
-5.6069999 6.5180001 -1.868 0.28
-5.6300001 6.5029998 -1.869 0.30000001
-5.6440001 6.4780002 -1.867 0.25999999
-5.6669998 6.4629998 -1.868 0.28
-5.6830001 6.4619999 -1.87 0.28999999
-5.6919999 6.4310002 -1.8660001 0.28999999
-5.7129998 6.414 -1.867 0.28999999
-5.7329998 6.3959999 -1.867 0.28
-5.7399998 6.3639998 -1.862 0.30000001
-5.7600002 6.3460002 -1.862 0.28999999
-5.7779999 6.3449998 -1.865 0.28999999
-5.789 6.3169999 -1.862 0.28
-5.809 6.2989998 -1.862 0.28
-5.836 6.289 -1.864 0.28999999
-5.8470001 6.2610002 -1.8609999 0.28
-5.869 6.2449999 -1.862 0.28999999
-5.8940001 6.2319999 -1.864 0.25999999
-5.9109998 6.23 -1.8660001 0.28
-5.928 6.2090001 -1.865 0.27000001
-5.948 6.1919999 -1.8660001 0.27000001
-5.9489999 6.1529999 -1.859 0.28999999
-5.9689999 6.1360002 -1.86 0.28
-5.9970002 6.1259999 -1.863 0.28999999
-6.0120001 6.1030002 -1.8609999 0.28
-6.0089998 6.0809999 -1.857 0.27000001
-6.0450001 6.0780001 -1.863 0.25999999
-6.0450001 6.04 -1.8559999 0.28
-6.0630002 6.0209999 -1.8559999 0.27000001
-6.099 6.0180001 -1.862 0.27000001
-6.1030002 5.9840002 -1.857 0.25999999
-6.1170001 5.961 -1.855 0.27000001
-6.131 5.9549999 -1.857 0.27000001
-6.132 5.9200001 -1.851 0.25999999
-6.1550002 5.9050002 -1.853 0.27000001
-6.1849999 5.8959999 -1.8559999 0.27000001
-6.1880002 5.862 -1.851 0.25999999
-6.2059999 5.842 -1.851 0.25999999
-6.2379999 5.835 -1.855 0.27000001
-6.2319999 5.8119998 -1.851 0.25999999
-6.2509999 5.7919998 -1.851 0.20999999
-6.277 5.7800002 -1.854 0.28
-6.2810001 5.7470002 -1.849 0.23999999
-6.3010001 5.7290001 -1.85 0.27000001
-6.3270001 5.717 -1.852 0.27000001
-6.3309999 5.684 -1.848 0.25
-6.335 5.6700001 -1.846 0.27000001
-6.362 5.658 -1.849 0.25999999
-6.381 5.6389999 -1.85 0.25999999
-6.3829999 5.605 -1.845 0.20999999
-6.4120002 5.5949998 -1.848 0.28
-6.415 5.5619998 -1.844 0.25
-6.4250002 5.5539999 -1.844 0.27000001
-6.447 5.5370002 -1.845 0.25999999
-6.4489999 5.5040002 -1.841 0.2
-6.467 5.4840002 -1.841 0.28
-6.4899998 5.4689999 -1.8430001 0.25
-6.4920001 5.4359999 -1.8380001 0.2
-6.5120001 5.4180002 -1.839 0.28
-6.5289998 5.415 -1.842 0.23999999
-6.5300002 5.381 -1.837 0.25999999
-6.5510001 5.3639998 -1.8380001 0.25999999
-6.5819998 5.3540001 -1.842 0.27000001
-6.5830002 5.322 -1.8380001 0.25
-6.605 5.3049998 -1.839 0.27000001
-6.638 5.2969999 -1.844 0.25999999
-6.6339998 5.277 -1.84 0.27000001
-6.6409998 5.2490001 -1.8380001 0.18000001
-6.6729999 5.2399998 -1.842 0.28999999
-6.6789999 5.211 -1.839 0.23
-6.697 5.191 -1.84 0.27000001
-6.7210002 5.1760001 -1.842 0.27000001
-6.7340002 5.152 -1.841 0.25
-6.7329998 5.1350002 -1.8380001 0.27000001
-6.7659998 5.1259999 -1.8430001 0.25999999
-6.7709999 5.0970001 -1.84 0.25999999
-6.79 5.0780001 -1.841 0.27000001
-6.8109999 5.0599999 -1.842 0.27000001
-6.8249998 5.0370002 -1.842 0.27000001
-6.8299999 5.0240002 -1.841 0.25999999
-6.8569999 5.0110002 -1.844 0.25999999
-6.8660002 4.9850001 -1.842 0.27000001
-6.882 4.9629998 -1.842 0.28999999
-6.908 4.9489999 -1.845 0.28
-6.9320002 4.9330001 -1.848 0.20999999
-6.9419999 4.908 -1.846 0.27000001
-6.9499998 4.8969998 -1.846 0.25
-6.967 4.8759999 -1.847 0.25999999
-6.9970002 4.8649998 -1.851 0.25
-7.006 4.8379998 -1.849 0.19
-7.0219998 4.8169999 -1.85 0.28999999
-7.0359998 4.7940001 -1.849 0.25
-7.059 4.777 -1.851 0.2
-7.0570002 4.7600002 -1.849 0.28
-7.0799999 4.743 -1.851 0.25
-7.0999999 4.724 -1.852 0.25999999
-7.119 4.7049999 -1.854 0.27000001
-7.132 4.6810002 -1.853 0.27000001
-7.158 4.6659999 -1.8559999 0.25999999
-7.1440001 4.6409998 -1.85 0.18000001
-7.1690001 4.625 -1.853 0.28999999
-7.198 4.612 -1.857 0.25
-7.2059999 4.585 -1.855 0.25999999
-7.21 4.5560002 -1.853 0.25
-7.2480001 4.5479999 -1.859 0.25
-7.2459998 4.5149999 -1.854 0.27000001
-7.2680001 4.513 -1.859 0.25
-7.283 4.4910002 -1.859 0.18000001
-7.2940001 4.4660001 -1.858 0.28
-7.3080001 4.4429998 -1.858 0.25
-7.3299999 4.4250002 -1.86 0.25999999
-7.3530002 4.4070001 -1.863 0.2
-7.3610001 4.381 -1.8609999 0.27000001
-7.382 4.3769999 -1.865 0.25
-7.3899999 4.3509998 -1.864 0.27000001
-7.414 4.3340001 -1.8660001 0.25999999
-7.4429998 4.3189998 -1.87 0.25
-7.4289999 4.2800002 -1.863 0.19
-7.4559999 4.2649999 -1.867 0.28
-7.4780002 4.2459998 -1.869 0.23999999
-7.4829998 4.2329998 -1.868 0.25
-7.493 4.2080002 -1.868 0.27000001
-7.5250001 4.1950002 -1.873 0.28
-7.5300002 4.1659999 -1.87 0.28999999
-7.5409999 4.1420002 -1.87 0.28
-7.5710001 4.1269999 -1.874 0.28999999
-7.5819998 4.1030002 -1.874 0.27000001
-7.5960002 4.0939999 -1.876 0.28
-7.6009998 4.0669999 -1.874 0.27000001
-7.618 4.0450001 -1.875 0.27000001
-7.6230001 4.0170002 -1.873 0.28999999
-7.652 4.0009999 -1.877 0.28
-7.6570001 3.974 -1.875 0.28999999
-7.671 3.95 -1.876 0.28
-7.6859999 3.9430001 -1.878 0.28999999
-7.6900001 3.914 -1.876 0.28
-7.704 3.891 -1.876 0.28
-7.7319999 3.875 -1.88 0.27000001
-7.7280002 3.8429999 -1.876 0.30000001
-7.744 3.8199999 -1.877 0.28
-7.7690001 3.8169999 -1.882 0.28
-7.763 3.7839999 -1.877 0.28
-7.7750001 3.76 -1.877 0.27000001
-7.8080001 3.7449999 -1.883 0.28999999
-7.809 3.7160001 -1.88 0.28999999
-7.8169999 3.6900001 -1.8789999 0.28999999
-7.8499999 3.675 -1.885 0.28
-7.836 3.654 -1.88 0.28999999
-7.8499999 3.6300001 -1.88 0.28999999
-7.8839998 3.6159999 -1.886 0.27000001
-7.8790002 3.5840001 -1.882 0.28
-7.8920002 3.5599999 -1.882 0.28999999
-7.927 3.5450001 -1.888 0.27000001
-7.9130001 3.5090001 -1.882 0.27000001
-7.9239998 3.4990001 -1.883 0.28
-7.9489999 3.48 -1.887 0.25999999
-7.9559999 3.454 -1.886 0.25
-7.9650002 3.428 -1.886 0.25999999
-7.994 3.411 -1.89 0.25999999
-7.987 3.378 -1.886 0.20999999
-8.0059996 3.3570001 -1.888 0.28
-8.0190001 3.3469999 -1.89 0.25
-8.0150003 3.316 -1.886 0.19
-8.04 3.2969999 -1.89 0.28
-8.0539999 3.273 -1.891 0.25
-8.0489998 3.2420001 -1.887 0.2
-8.0699997 3.221 -1.89 0.27000001
-8.0810003 3.21 -1.891 0.23999999
-8.0909996 3.1849999 -1.891 0.25
-8.099 3.1589999 -1.891 0.25
-8.1160002 3.1359999 -1.892 0.20999999
-8.1190004 3.108 -1.891 0.28
-8.1300001 3.0829999 -1.891 0.25
-8.165 3.0669999 -1.897 0.25999999
-8.1520004 3.0469999 -1.893 0.27000001
-8.1610003 3.0220001 -1.893 0.25999999
-8.1890001 3.003 -1.897 0.27000001
-8.1879997 2.973 -1.895 0.27000001
-8.1969995 2.947 -1.895 0.27000001
-8.217 2.925 -1.897 0.25999999
-8.2189999 2.8970001 -1.896 0.27000001
-8.2290001 2.8859999 -1.897 0.28
-8.2580004 2.8670001 -1.902 0.27000001
-8.243 2.8329999 -1.896 0.27000001
-8.276 2.8150001 -1.902 0.25999999
-8.302 2.7950001 -1.906 0.28999999
-8.3030005 2.766 -1.904 0.28999999
-8.3190002 2.7420001 -1.906 0.28
-8.3199997 2.7279999 -1.905 0.27000001
-8.3699999 -2.536 -1.903 0.36000001
-8.3470001 -2.5580001 -1.899 0.30000001
-8.3240004 -2.579 -1.896 0.31999999
-8.3219995 -2.6070001 -1.897 0.34
-8.3380003 -2.6270001 -1.902 0.36000001
-8.3260002 -2.652 -1.901 0.38999999
-8.3210001 -2.6789999 -1.902 0.28
-8.302 -2.701 -1.899 0.28
-8.2639999 -2.7179999 -1.892 0.27000001
-8.2419996 -2.7390001 -1.8890001 0.27000001
-8.2370005 -2.766 -1.89 0.25999999
-8.2139997 -2.773 -1.885 0.20999999
-8.2040005 -2.7980001 -1.885 0.28
-8.1969995 -2.825 -1.885 0.25
-8.184 -2.849 -1.8839999 0.23999999
-8.1639996 -2.8710001 -1.882 0.20999999
-8.151 -2.895 -1.881 0.27000001
-8.1370001 -2.9189999 -1.8789999 0.25
-8.1190004 -2.927 -1.876 0.25999999
-8.1059999 -2.951 -1.875 0.25999999
-8.0860004 -2.9719999 -1.873 0.2
-8.0799999 -2.9990001 -1.873 0.27000001
-8.0559998 -3.0190001 -1.87 0.25
-8.0469999 -3.0439999 -1.87 0.25999999
-8.0310001 -3.053 -1.867 0.25999999
-8.0179996 -3.0769999 -1.8660001 0.25999999
-8.0030003 -3.0999999 -1.865 0.27000001
-7.9780002 -3.119 -1.8609999 0.2
-7.9720001 -3.145 -1.862 0.27000001
-7.9460001 -3.164 -1.858 0.25
-7.9429998 -3.1919999 -1.86 0.23999999
-7.9239998 -3.198 -1.8559999 0.22
-7.8850002 -3.211 -1.849 0.27000001
-7.8769999 -3.237 -1.85 0.25
-7.8610001 -3.2590001 -1.848 0.27000001
-7.849 -3.283 -1.848 0.25999999
-7.8239999 -3.302 -1.844 0.27000001
-7.8189998 -3.329 -1.845 0.27000001
-7.8099999 -3.3399999 -1.845 0.27000001
-7.7870002 -3.359 -1.841 0.28999999
-7.7859998 -3.3870001 -1.844 0.28
-7.7550001 -3.4030001 -1.839 0.28999999
-7.7379999 -3.424 -1.837 0.27000001
-7.7199998 -3.4449999 -1.835 0.28
-7.6999998 -3.4649999 -1.8329999 0.27000001
-7.684 -3.4719999 -1.83 0.28999999
-7.6729999 -3.497 -1.83 0.28
-7.6479998 -3.5139999 -1.827 0.28999999
-7.638 -3.539 -1.827 0.28
-7.6290002 -3.5639999 -1.827 0.28
-7.598 -3.579 -1.822 0.28
-7.5819998 -3.585 -1.8200001 0.27000001
-7.566 -3.6070001 -1.818 0.28
-7.5349998 -3.6210001 -1.813 0.25999999
-7.5149999 -3.6400001 -1.811 0.27000001
-7.4860001 -3.655 -1.807 0.28
-7.467 -3.675 -1.8049999 0.28999999
-7.4580002 -3.7 -1.8049999 0.30000001
-7.4450002 -3.7079999 -1.803 0.30000001
-7.4349999 -3.7320001 -1.804 0.31
-7.4070001 -3.7479999 -1.8 0.30000001
-7.4130001 -3.78 -1.804 0.30000001
-7.3850002 -3.7950001 -1.8 0.30000001
-7.3670001 -3.8150001 -1.799 0.28999999
-7.3610001 -3.8410001 -1.8 0.30000001
-7.3309999 -3.8399999 -1.794 0.28
-7.3119998 -3.8599999 -1.7920001 0.28999999
-7.3169999 -3.892 -1.7970001 0.31999999
-7.296 -3.9100001 -1.794 0.30000001
-7.2719998 -3.9260001 -1.791 0.28999999
-7.263 -3.951 -1.7920001 0.31
-7.2459998 -3.971 -1.791 0.28999999
-7.243 -3.984 -1.7920001 0.28999999
-7.2270002 -4.0050001 -1.791 0.28999999
-7.2059999 -4.0229998 -1.789 0.30000001
-7.1799998 -4.0380001 -1.785 0.28999999
-7.1719999 -4.0630002 -1.786 0.28999999
-7.1490002 -4.0799999 -1.784 0.30000001
-7.1430001 -4.0910001 -1.784 0.28999999
-7.131 -4.1149998 -1.784 0.30000001
-7.1100001 -4.132 -1.7819999 0.31
-7.092 -4.152 -1.78 0.28999999
-7.0840001 -4.177 -1.7819999 0.30000001
-7.066 -4.1960001 -1.78 0.28999999
-7.0440001 -4.2129998 -1.778 0.31
-7.039 -4.2249999 -1.779 0.27000001
-7.0229998 -4.2449999 -1.778 0.31
-7.0009999 -4.2620001 -1.776 0.30000001
-6.9920001 -4.2870002 -1.777 0.30000001
-6.967 -4.302 -1.774 0.28999999
-6.947 -4.3200002 -1.772 0.28999999
-6.9419999 -4.3319998 -1.772 0.28
-6.9200001 -4.348 -1.77 0.28
-6.908 -4.3709998 -1.771 0.28999999
-6.8959999 -4.3940001 -1.771 0.28999999
-6.869 -4.4070001 -1.767 0.28999999
-6.855 -4.4289999 -1.767 0.28
-6.8379998 -4.448 -1.766 0.28999999
-6.8080001 -4.4439998 -1.76 0.2
-6.802 -4.4699998 -1.762 0.28999999
-6.7930002 -4.4949999 -1.7640001 0.25
-6.7659998 -4.5079999 -1.76 0.25999999
-6.7529998 -4.5300002 -1.761 0.27000001
-6.7649999 -4.5689998 -1.768 0.25
-6.723 -4.5710001 -1.76 0.27000001
-6.7189999 -4.5840001 -1.761 0.28
-6.7080002 -4.6069999 -1.762 0.28
-6.6869998 -4.6240001 -1.76 0.28
-6.671 -4.6440001 -1.76 0.27000001
-6.6690001 -4.6739998 -1.763 0.28999999
-6.632 -4.6789999 -1.757 0.28999999
-6.605 -4.691 -1.753 0.28999999
-6.6259999 -4.7210002 -1.762 0.25999999
-6.5939999 -4.73 -1.757 0.27000001
-6.5819998 -4.7529998 -1.757 0.28
-6.5700002 -4.776 -1.758 0.27000001
-6.553 -4.7950001 -1.758 0.28999999
-6.5370002 -4.8140001 -1.757 0.28999999
-6.5289998 -4.8410001 -1.76 0.30000001
-6.5139999 -4.8449998 -1.757 0.27000001
-6.5110002 -4.875 -1.761 0.27000001
-6.5019999 -4.9000001 -1.763 0.28999999
-6.4759998 -4.9120002 -1.76 0.28999999
-6.4489999 -4.9239998 -1.757 0.30000001
-6.4450002 -4.9530001 -1.76 0.28
-6.428 -4.9720001 -1.7589999 0.25999999
-6.427 -4.9879999 -1.762 0.27000001
-6.4229999 -5.0170002 -1.765 0.27000001
-6.3899999 -5.0229998 -1.76 0.28
-6.3790002 -5.0469999 -1.761 0.28
-6.375 -5.0770001 -1.765 0.27000001
-6.3509998 -5.0910001 -1.762 0.28
-6.3429999 -5.1009998 -1.762 0.28999999
-6.3330002 -5.1259999 -1.7640001 0.28999999
-6.3039999 -5.1339998 -1.76 0.28999999
-6.2940001 -5.1589999 -1.762 0.27000001
-6.2880001 -5.1869998 -1.765 0.28999999
-6.256 -5.1950002 -1.761 0.27000001
-6.2540002 -5.2259998 -1.765 0.27000001
-6.25 -5.2389998 -1.766 0.28
-6.2179999 -5.2459998 -1.762 0.28
-6.2090001 -5.2719998 -1.7640001 0.28
-6.2059999 -5.303 -1.768 0.27000001
-6.1810002 -5.3150001 -1.765 0.30000001
-6.1810002 -5.3499999 -1.771 0.25999999
-6.1760001 -5.362 -1.771 0.28
-6.1560001 -5.3790002 -1.771 0.27000001
-6.151 -5.408 -1.774 0.28999999
-6.1269999 -5.421 -1.772 0.27000001
-6.1009998 -5.4320002 -1.7690001 0.28999999
-6.1069999 -5.473 -1.776 0.30000001
-6.085 -5.4879999 -1.775 0.30000001
-6.0710001 -5.4920001 -1.773 0.28999999
-6.0669999 -5.5229998 -1.777 0.28999999
-6.0489998 -5.5419998 -1.777 0.28
-6.0279999 -5.5570002 -1.776 0.28999999
-6.0100002 -5.5760002 -1.776 0.28999999
-6.0019999 -5.6040001 -1.779 0.28
-5.9749999 -5.6139998 -1.776 0.28999999
-5.9699998 -5.6269999 -1.777 0.28999999
-5.9569998 -5.6500001 -1.779 0.28
-5.9380002 -5.6669998 -1.778 0.27000001
-5.921 -5.6869998 -1.779 0.27000001
-5.9050002 -5.7069998 -1.779 0.27000001
-5.8800001 -5.7189999 -1.777 0.27000001
-5.8670001 -5.743 -1.779 0.27000001
-5.8779998 -5.7709999 -1.785 0.25
-5.8530002 -5.783 -1.783 0.19
-5.8499999 -5.816 -1.788 0.28
-5.835 -5.8390002 -1.789 0.25
-5.8070002 -5.8470001 -1.786 0.2
-5.803 -5.8790002 -1.79 0.27000001
-5.7839999 -5.8969998 -1.79 0.23
-5.7789998 -5.9109998 -1.7920001 0.27000001
-5.7639999 -5.9330001 -1.793 0.27000001
-5.7540002 -5.96 -1.796 0.25
-5.73 -5.9720001 -1.794 0.30000001
-5.7150002 -5.994 -1.795 0.27000001
-5.6919999 -6.0079999 -1.794 0.27000001
-5.6960001 -6.0310001 -1.799 0.31999999
-5.678 -6.0500002 -1.799 0.28
-5.6609998 -6.0700002 -1.799 0.30000001
-5.6360002 -6.0819998 -1.798 0.28999999
-5.6160002 -6.098 -1.7970001 0.28999999
-5.6079998 -6.1279998 -1.801 0.31
-5.5840001 -6.1399999 -1.799 0.28999999
-5.5819998 -6.158 -1.802 0.28999999
-5.5599999 -6.1719999 -1.801 0.28999999
-5.539 -6.1880002 -1.801 0.30000001
-5.52 -6.2059999 -1.801 0.30000001
-5.5089998 -6.2329998 -1.804 0.28999999
-5.4850001 -6.2449999 -1.802 0.28999999
-5.4699998 -6.2680001 -1.804 0.28999999
-5.4759998 -6.2940001 -1.809 0.28
-5.461 -6.3169999 -1.811 0.31
-5.4359999 -6.3280001 -1.809 0.28999999
-5.4320002 -6.3649998 -1.8150001 0.31
-5.4050002 -6.3730001 -1.813 0.30000001
-5.382 -6.3870001 -1.812 0.30000001
-5.3699999 -6.3920002 -1.811 0.30000001
-5.355 -6.415 -1.813 0.30000001
-5.3330002 -6.4299998 -1.812 0.28999999
-5.3200002 -6.4559999 -1.8150001 0.28
-5.303 -6.4759998 -1.816 0.30000001
-5.2740002 -6.4819999 -1.813 0.28
-5.2740002 -6.5240002 -1.8200001 0.28
-5.2529998 -6.5190001 -1.816 0.28
-5.23 -6.5320001 -1.8150001 0.28999999
-5.2210002 -6.5640001 -1.8200001 0.28999999
-5.198 -6.5770001 -1.819 0.28999999
-5.1820002 -6.599 -1.821 0.27000001
-5.171 -6.6279998 -1.824 0.28
-5.1479998 -6.6409998 -1.823 0.28
-5.1409998 -6.6539998 -1.825 0.28999999
-5.1259999 -6.678 -1.827 0.28
-5.098 -6.6849999 -1.824 0.30000001
-5.079 -6.704 -1.825 0.28999999
-5.0700002 -6.7350001 -1.83 0.27000001
-5.0710001 -6.7810001 -1.8380001 0.27000001
-5.0679998 -6.8000002 -1.841 0.28
-1.765 -8.0839996 -1.794 0.34
-1.756 -8.1040001 -1.798 0.31
-1.7309999 -8.1110001 -1.798 0.28999999
-1.7 -8.0939999 -1.793 0.31
-1.675 -8.099 -1.793 0.28999999
-1.654 -8.125 -1.798 0.31
-1.625 -8.1149998 -1.794 0.31
-1.598 -8.1110001 -1.7920001 0.28
-1.589 -8.132 -1.796 0.28999999
-1.556 -8.1009998 -1.788 0.28999999
-1.533 -8.1190004 -1.791 0.33000001
-1.507 -8.1219997 -1.79 0.28999999
-1.4809999 -8.1190004 -1.789 0.30000001
-1.452 -8.1059999 -1.785 0.28999999
-1.429 -8.1219997 -1.7869999 0.28999999
-1.414 -8.1169996 -1.785 0.30000001
-1.391 -8.1330004 -1.788 0.33000001
-1.364 -8.1269999 -1.786 0.27000001
-1.337 -8.1260004 -1.785 0.30000001
-1.314 -8.1440001 -1.788 0.31999999
-1.288 -8.1440001 -1.7869999 0.30000001
-1.2589999 -8.1269999 -1.7819999 0.28
-1.2460001 -8.1269999 -1.781 0.28999999
-1.221 -8.1339998 -1.7819999 0.30000001
-1.1950001 -8.1339998 -1.781 0.31999999
-1.169 -8.1359997 -1.781 0.28
-1.145 -8.151 -1.784 0.31
-1.1160001 -8.132 -1.778 0.30000001
-1.104 -8.1370001 -1.779 0.31
-1.08 -8.1520004 -1.7819999 0.30000001
-1.052 -8.1379995 -1.778 0.27000001
-1.027 -8.1429996 -1.778 0.31999999
-1.002 -8.1560001 -1.78 0.30000001
-0.97500002 -8.1440001 -1.777 0.30000001
-0.949 -8.1490002 -1.777 0.31
-0.93699998 -8.1499996 -1.777 0.30000001
-0.91100001 -8.151 -1.777 0.27000001
-0.88499999 -8.1479998 -1.776 0.28999999
-0.86000001 -8.1590004 -1.777 0.31999999
-0.833 -8.1499996 -1.775 0.30000001
-0.80699998 -8.1450005 -1.773 0.28999999
-0.78200001 -8.1529999 -1.774 0.31
-0.76800001 -8.1409998 -1.771 0.30000001
-0.74199998 -8.1470003 -1.772 0.28999999
-0.71799999 -8.1610003 -1.775 0.28999999
-0.69099998 -8.1490002 -1.771 0.30000001
-0.66500002 -8.1479998 -1.771 0.28
-0.63999999 -8.1560001 -1.772 0.28999999
-0.62599999 -8.1429996 -1.7690001 0.27000001
-0.60100001 -8.1529999 -1.771 0.28
-0.57499999 -8.151 -1.77 0.28
-0.54900002 -8.1429996 -1.767 0.28999999
-0.523 -8.1459999 -1.768 0.27000001
-0.498 -8.1479998 -1.768 0.28999999
-0.47299999 -8.1549997 -1.7690001 0.28
-0.45899999 -8.1499996 -1.768 0.28
-0.43399999 -8.1630001 -1.771 0.27000001
-0.40900001 -8.165 -1.771 0.28999999
-0.38299999 -8.1619997 -1.77 0.30000001
-0.35699999 -8.1590004 -1.7690001 0.28
-0.331 -8.1540003 -1.767 0.28999999
-0.31799999 -8.151 -1.766 0.28
-0.292 -8.1379995 -1.763 0.25999999
-0.26699999 -8.1370001 -1.763 0.28999999
-0.242 -8.1540003 -1.766 0.28999999
-0.21600001 -8.1389999 -1.763 0.28999999
-0.19 -8.1339998 -1.762 0.28
-0.164 -8.132 -1.761 0.27000001
-0.152 -8.1330004 -1.761 0.28999999
-0.126 -8.125 -1.7589999 0.28999999
-0.1 -8.1199999 -1.758 0.27000001
-0.075000003 -8.1260004 -1.7589999 0.28
-0.048999999 -8.1079998 -1.755 0.27000001
-0.024 -8.1300001 -1.76 0.28
0.0020000001 -8.1090002 -1.755 0.27000001
0.014 -8.1009998 -1.753 0.27000001
0.039999999 -8.099 -1.753 0.28
0.064999998 -8.1009998 -1.753 0.25999999
0.090999998 -8.1099997 -1.756 0.25
0.116 -8.0900002 -1.751 0.18000001
0.142 -8.1029997 -1.7539999 0.28999999
0.154 -8.0839996 -1.75 0.23999999
0.17900001 -8.0810003 -1.749 0.2
0.205 -8.0880003 -1.751 0.23
0.23 -8.0760002 -1.748 0.23
0.25600001 -8.0869999 -1.751 0.23999999
0.28099999 -8.0740004 -1.748 0.20999999
0.30599999 -8.0760002 -1.749 0.27000001
0.31799999 -8.0629997 -1.7460001 0.25
0.34400001 -8.0679998 -1.748 0.2
0.36899999 -8.0609999 -1.7460001 0.27000001
0.39399999 -8.0559998 -1.745 0.25
0.41999999 -8.059 -1.7460001 0.25
0.44499999 -8.0500002 -1.744 0.19
0.47 -8.052 -1.745 0.27000001
0.48300001 -8.0489998 -1.745 0.25
0.50700003 -8.04 -1.743 0.25999999
0.53200001 -8.0290003 -1.7410001 0.2
0.55800003 -8.0419998 -1.744 0.25999999
0.58200002 -8.0229998 -1.74 0.25
0.60699999 -8.0190001 -1.74 0.25
0.63300002 -8.0270004 -1.742 0.2
0.64600003 -8.0220003 -1.7410001 0.27000001
0.67000002 -8.0100002 -1.739 0.23
0.69599998 -8.0200005 -1.742 0.2
0.72000003 -8.0039997 -1.738 0.27000001
0.745 -7.9980001 -1.738 0.25
0.76999998 -7.9990001 -1.738 0.19
0.78200001 -7.9910002 -1.737 0.27000001
0.80500001 -7.9710002 -1.733 0.25
0.83200002 -7.987 -1.737 0.19
0.85600001 -7.973 -1.734 0.27000001
0.87900001 -7.9510002 -1.73 0.25
0.90600002 -7.9619999 -1.733 0.25999999
0.92799997 -7.9359999 -1.728 0.25999999
0.94300002 -7.9549999 -1.733 0.23999999
0.96700001 -7.9429998 -1.73 0.17
0.99199998 -7.9419999 -1.7309999 0.28
1.015 -7.921 -1.727 0.25
1.041 -7.928 -1.729 0.2
1.0650001 -7.9169998 -1.727 0.27000001
1.076 -7.9050002 -1.725 0.23999999
1.102 -7.9089999 -1.727 0.2
1.125 -7.8959999 -1.725 0.27000001
1.148 -7.8790002 -1.721 0.25
1.175 -7.8930001 -1.725 0.20999999
1.199 -7.8800001 -1.723 0.25
1.221 -7.8579998 -1.719 0.23999999
1.238 -7.8850002 -1.726 0.22
1.2589999 -7.8579998 -1.72 0.25
1.28 -7.835 -1.716 0.23999999
1.308 -7.848 -1.72 0.2
1.331 -7.8369999 -1.7180001 0.25999999
1.353 -7.8189998 -1.715 0.23
1.3789999 -7.8239999 -1.717 0.20999999
1.3890001 -7.809 -1.714 0.13
1.4119999 -7.7930002 -1.711 0.20999999
1.439 -7.8039999 -1.715 0.2
1.4630001 -7.7950001 -1.714 0.25999999
1.485 -7.7810001 -1.712 0.23
1.513 -7.7919998 -1.715 0.22
1.524 -7.783 -1.714 0.25
1.546 -7.7690001 -1.712 0.23
1.574 -7.7810001 -1.716 0.19
1.598 -7.7709999 -1.715 0.27000001
1.622 -7.7639999 -1.714 0.25
1.648 -7.7659998 -1.716 0.2
1.6720001 -7.7589998 -1.715 0.28
1.682 -7.7490001 -1.714 0.25
1.711 -7.7639999 -1.719 0.19
1.733 -7.75 -1.716 0.25999999
1.756 -7.7350001 -1.714 0.25
1.783 -7.744 -1.7180001 0.25999999
1.8049999 -7.7249999 -1.715 0.20999999
1.83 -7.7249999 -1.716 0.27000001
1.847 -7.743 -1.721 0.25
1.867 -7.7179999 -1.716 0.2
1.893 -7.7179999 -1.7180001 0.25999999
1.918 -7.7160001 -1.719 0.25
1.941 -7.7059999 -1.7180001 0.25
1.9630001 -7.691 -1.715 0.2
1.9809999 -7.7119999 -1.721 0.27000001
2.0009999 -7.6869998 -1.717 0.23999999
2.0250001 -7.6820002 -1.717 0.2
2.0569999 -7.704 -1.724 0.27000001
2.0739999 -7.6729999 -1.7180001 0.25
2.1010001 -7.6739998 -1.72 0.2
2.1300001 -7.6859999 -1.725 0.27000001
2.1359999 -7.6620002 -1.72 0.25
2.1589999 -7.652 -1.719 0.2
2.191 -7.6729999 -1.725 0.28
2.211 -7.651 -1.722 0.25
2.2360001 -7.6459999 -1.722 0.25999999
2.2609999 -7.645 -1.724 0.2
2.276 -7.6490002 -1.725 0.27000001
2.2969999 -7.6339998 -1.724 0.25
2.329 -7.6529999 -1.73 0.23
2.345 -7.619 -1.724 0.18000001
2.3699999 -7.6139998 -1.724 0.28
2.401 -7.631 -1.73 0.25
2.4219999 -7.612 -1.727 0.27000001
2.434 -7.6079998 -1.727 0.25
2.461 -7.6100001 -1.729 0.18000001
2.4790001 -7.585 -1.725 0.28
2.5039999 -7.579 -1.726 0.25
2.5380001 -7.6030002 -1.734 0.25
2.55 -7.5599999 -1.725 0.18000001
2.5799999 -7.5700002 -1.729 0.28999999
2.596 -7.5770001 -1.732 0.25
2.618 -7.5650001 -1.7309999 0.25
2.6359999 -7.54 -1.727 0.19
2.668 -7.5539999 -1.733 0.28999999
2.6830001 -7.5240002 -1.727 0.25
2.714 -7.5349998 -1.732 0.25999999
2.727 -7.5349998 -1.733 0.27000001
2.7479999 -7.5170002 -1.7309999 0.27000001
2.77 -7.5050001 -1.73 0.27000001
2.7980001 -7.507 -1.733 0.27000001
2.819 -7.4920001 -1.7309999 0.28
2.8410001 -7.48 -1.73 0.28
2.875 -7.4980001 -1.737 0.27000001
2.8759999 -7.4650002 -1.73 0.28999999
2.901 -7.4590001 -1.7309999 0.28999999
2.9319999 -7.4699998 -1.7359999 0.28999999
2.954 -7.4569998 -1.735 0.28999999
2.973 -7.4369998 -1.732 0.28
3.0009999 -7.4380002 -1.735 0.27000001
3.0209999 -7.4219999 -1.733 0.27000001
3.0309999 -7.4120002 -1.732 0.28
3.063 -7.4239998 -1.737 0.27000001
3.079 -7.3959999 -1.733 0.28
3.1070001 -7.3990002 -1.7359999 0.25999999
3.1340001 -7.3979998 -1.738 0.27000001
3.1559999 -7.3850002 -1.737 0.28999999
3.1800001 -7.3759999 -1.738 0.28999999
3.191 -7.3709998 -1.738 0.30000001
3.217 -7.3670001 -1.739 0.28999999
3.2420001 -7.3600001 -1.74 0.27000001
3.267 -7.355 -1.7410001 0.28
3.289 -7.3410001 -1.74 0.30000001
3.312 -7.3330002 -1.7410001 0.28
3.325 -7.329 -1.7410001 0.28999999
3.352 -7.3280001 -1.743 0.28
3.3699999 -7.3070002 -1.7410001 0.28999999
3.3989999 -7.3080001 -1.744 0.30000001
3.4170001 -7.2870002 -1.7410001 0.28
3.4449999 -7.2880001 -1.744 0.28999999
3.47 -7.2810001 -1.745 0.28999999
3.48 -7.2719998 -1.744 0.28999999
3.503 -7.263 -1.745 0.28999999
3.5280001 -7.2550001 -1.7460001 0.28
3.5439999 -7.23 -1.742 0.27000001
3.5739999 -7.2350001 -1.7460001 0.28
3.599 -7.2270002 -1.747 0.27000001
3.6110001 -7.223 -1.748 0.28
3.6270001 -7.1999998 -1.744 0.30000001
3.6500001 -7.1880002 -1.744 0.28999999
3.9449999 -7.0419998 -1.747 0.25999999
3.9809999 -7.053 -1.753 0.28
3.994 -7.0250001 -1.749 0.31
4.0159998 -7.013 -1.749 0.28999999
4.0300002 -7.0110002 -1.75 0.31999999
4.0440001 -6.9850001 -1.747 0.28999999
4.0549998 -6.9520001 -1.7410001 0
4.0009999 -6.8119998 -1.707 0
4.0079999 -6.776 -1.701 0
4.007 -6.7249999 -1.6900001 0
4.0180001 -6.421 -1.632 0
7.9120002 1.027 -1.791 0.31999999
7.8969998 1.05 -1.788 0.31999999
7.882 1.073 -1.785 0.31999999
7.8839998 1.099 -1.786 0.31
7.862 1.1210001 -1.7819999 0.28999999
7.848 1.1440001 -1.779 0.28999999
7.8270001 1.1670001 -1.775 0.31
7.8080001 1.176 -1.771 0.28
7.7989998 1.2 -1.77 0.28999999
7.8049998 1.226 -1.772 0.31999999
7.7989998 1.25 -1.771 0.30000001
7.7909999 1.274 -1.77 0.28999999
7.7810001 1.298 -1.7690001 0.30000001
7.7620001 1.319 -1.765 0.28999999
7.7579999 1.331 -1.765 0.28999999
7.7649999 1.358 -1.768 0.31999999
7.7470002 1.38 -1.7640001 0.31
7.756 1.406 -1.768 0.30000001
7.7399998 1.429 -1.765 0.28999999
7.7189999 1.45 -1.761 0.28999999
7.724 1.476 -1.763 0.28999999
7.7189999 1.488 -1.763 0.30000001
7.7030001 1.51 -1.76 0.31
7.7249999 1.539 -1.766 0.30000001
7.7030001 1.5599999 -1.762 0.31999999
7.6849999 1.581 -1.7589999 0.31999999
7.6929998 1.608 -1.762 0.28999999
7.6750002 1.617 -1.758 0.31
7.691 1.646 -1.763 0.33000001
7.6859999 1.67 -1.763 0.30000001
7.658 1.689 -1.758 0.30000001
7.6729999 1.7180001 -1.763 0.34999999
7.6570001 1.739 -1.76 0.31999999
7.638 1.76 -1.757 0.31
7.645 1.774 -1.7589999 0.30000001
7.6370001 1.798 -1.7589999 0.33000001
7.6220002 1.8200001 -1.756 0.31999999
7.6290002 1.847 -1.76 0.31999999
7.6160002 1.869 -1.758 0.28999999
7.6009998 1.891 -1.756 0.30000001
7.6030002 1.904 -1.757 0.31999999
7.5949998 1.927 -1.756 0.31
7.5869999 1.951 -1.756 0.31
7.5809999 1.975 -1.756 0.31
7.5669999 1.9960001 -1.7539999 0.31999999
7.5689998 2.0220001 -1.756 0.31999999
7.5450001 2.0409999 -1.752 0.31999999
7.546 2.0539999 -1.753 0.31
7.5489998 2.0810001 -1.755 0.34
7.5310001 2.1010001 -1.752 0.31999999
7.5300002 2.1259999 -1.7539999 0.30000001
7.5289998 2.152 -1.755 0.31
7.5240002 2.1760001 -1.756 0.31999999
7.5079999 2.197 -1.753 0.30000001
7.5149999 2.2119999 -1.756 0.30000001
7.494 2.2309999 -1.752 0.31
7.4980001 2.2579999 -1.755 0.28999999
7.487 2.28 -1.7539999 0.30000001
7.4720001 2.3010001 -1.752 0.31
7.4629998 2.3239999 -1.752 0.30000001
7.4559999 2.335 -1.751 0.31999999
7.4320002 2.3529999 -1.747 0.28
7.4239998 2.3759999 -1.747 0.33000001
7.4039998 2.3959999 -1.743 0.28999999
7.4070001 2.4219999 -1.7460001 0.33000001
7.3870001 2.441 -1.743 0.28999999
7.3860002 2.467 -1.745 0.33000001
7.3639998 2.473 -1.74 0.28999999
7.3540001 2.4949999 -1.74 0.34
7.3410001 2.516 -1.738 0.28999999
7.3369999 2.5409999 -1.739 0.33000001
7.3200002 2.5599999 -1.737 0.28999999
7.3189998 2.586 -1.739 0.33000001
7.3039999 2.5940001 -1.7359999 0.31
7.296 2.6170001 -1.7359999 0.31999999
7.2930002 2.641 -1.737 0.33000001
7.2789998 2.6619999 -1.7359999 0.31999999
7.256 2.6800001 -1.732 0.30000001
7.2579999 2.707 -1.735 0.34
7.2550001 2.7320001 -1.7359999 0.33000001
7.244 2.74 -1.735 0.31999999
7.2259998 2.7590001 -1.732 0.28999999
7.223 2.7839999 -1.734 0.33000001
7.2030001 2.803 -1.7309999 0.31999999
7.2049999 2.8299999 -1.734 0.31999999
7.1849999 2.848 -1.7309999 0.30000001
7.1810002 2.859 -1.7309999 0.30000001
7.1589999 2.8770001 -1.728 0.31
7.1609998 2.904 -1.73 0.34
7.1409998 2.9219999 -1.728 0.28
7.1370001 2.9460001 -1.729 0.30000001
7.1220002 2.9660001 -1.728 0.31
7.1020002 2.984 -1.725 0.28999999
7.1079998 3 -1.728 0.30000001
7.0830002 3.016 -1.723 0.31
7.0819998 3.0420001 -1.726 0.30000001
7.0689998 3.062 -1.725 0.30000001
7.0469999 3.079 -1.721 0.30000001
7.046 3.105 -1.724 0.31999999
7.0349998 3.1259999 -1.723 0.31
7.0279999 3.1370001 -1.723 0.31999999
7.0139999 3.1570001 -1.722 0.31999999
7.0040002 3.1789999 -1.722 0.31999999
6.993 3.2 -1.721 0.31999999
6.9770002 3.22 -1.72 0.31999999
6.967 3.2420001 -1.72 0.31
6.9640002 3.267 -1.722 0.30000001
6.9499998 3.2739999 -1.72 0.28999999
6.941 3.296 -1.72 0.28999999
6.915 3.3110001 -1.716 0.30000001
6.915 3.3369999 -1.719 0.31
6.8959999 3.355 -1.716 0.28999999
6.8940001 3.381 -1.719 0.33000001
6.875 3.385 -1.715 0.28999999
6.8730001 3.411 -1.717 0.34
6.8470001 3.424 -1.7130001 0.31999999
6.848 3.4519999 -1.716 0.31999999
6.8340001 3.4719999 -1.715 0.31999999
6.8189998 3.4909999 -1.714 0.30000001
6.8119998 3.5150001 -1.715 0.30000001
6.8060002 3.5250001 -1.715 0.34
6.7919998 3.5450001 -1.714 0.31999999
6.7750001 3.5639999 -1.7130001 0.28999999
6.776 3.5910001 -1.716 0.31
6.7579999 3.609 -1.714 0.31
6.7410002 3.6270001 -1.7130001 0.31
6.7480001 3.6440001 -1.716 0.34
6.7309999 3.6630001 -1.715 0.30000001
6.7189999 3.684 -1.715 0.31999999
6.7129998 3.7079999 -1.716 0.33000001
6.6939998 3.7249999 -1.714 0.31999999
6.6859999 3.7479999 -1.715 0.31999999
6.6739998 3.7690001 -1.715 0.31999999
6.6820002 3.7869999 -1.719 0.31
6.665 3.8050001 -1.7180001 0.31
6.6599998 3.8299999 -1.72 0.31999999
6.6389999 3.846 -1.717 0.31999999
6.6339998 3.8710001 -1.719 0.30000001
6.6279998 3.895 -1.721 0.31
6.6110001 3.9130001 -1.72 0.33000001
6.6149998 3.9300001 -1.722 0.28999999
6.5910001 3.9430001 -1.719 0.31
6.5869999 3.9690001 -1.721 0.30000001
6.5879998 3.9979999 -1.725 0.30000001
6.5570002 4.007 -1.72 0.31
6.5570002 4.0359998 -1.724 0.33000001
6.5479999 4.059 -1.725 0.28999999
6.5300002 4.0619998 -1.721 0.30000001
6.5190001 4.0830002 -1.722 0.31
6.5190001 4.112 -1.726 0.33000001
6.5029998 4.1300001 -1.725 0.31
6.4920001 4.152 -1.725 0.31999999
6.4970002 4.184 -1.73 0.31
6.4790001 4.1869998 -1.727 0.30000001
6.4650002 4.2069998 -1.727 0.30000001
6.4619999 4.2340002 -1.73 0.28999999
6.4390001 4.2470002 -1.727 0.28999999
6.427 4.2690001 -1.728 0.30000001
6.4250002 4.296 -1.7309999 0.30000001
6.4050002 4.3119998 -1.729 0.31
6.3969998 4.3210001 -1.728 0.30000001
6.3959999 4.3499999 -1.732 0.30000001
6.381 4.369 -1.732 0.30000001
6.3569999 4.382 -1.729 0.28999999
6.3660002 4.4180002 -1.735 0.31
6.336 4.427 -1.7309999 0.27000001
6.3189998 4.4299998 -1.728 0.28999999
6.3249998 4.4629998 -1.734 0.30000001
6.2989998 4.4749999 -1.73 0.31
6.277 4.4889998 -1.728 0.28999999
6.2789998 4.52 -1.733 0.31999999
6.2459998 4.526 -1.727 0.31999999
6.2350001 4.5479999 -1.728 0.30000001
6.256 4.579 -1.7359999 0.31999999
6.2290001 4.5890002 -1.733 0.33000001
6.2160001 4.6100001 -1.733 0.31999999
6.211 4.6360002 -1.7359999 0.31999999
6.1849999 4.6479998 -1.733 0.34
6.1890001 4.6810002 -1.738 0.34999999
6.1729999 4.6989999 -1.738 0.30000001
6.1659999 4.7090001 -1.738 0.34
6.1570001 4.7329998 -1.74 0.28999999
6.158 4.7639999 -1.744 0.34
6.1329999 4.776 -1.742 0.30000001
6.1230001 4.7989998 -1.743 0.28999999
6.1170001 4.8260002 -1.7460001 0.31
6.1090002 4.835 -1.7460001 0.30000001
6.0900002 4.8509998 -1.744 0.31999999
6.0840001 4.8769999 -1.747 0.30000001
6.0710001 4.8990002 -1.748 0.30000001
6.053 4.915 -1.747 0.31
6.0489998 4.9439998 -1.751 0.31
6.0349998 4.9640002 -1.751 0.30000001
6.0370002 4.9809999 -1.7539999 0.30000001
6.0190001 4.9990001 -1.7539999 0.30000001
6.0040002 5.0180001 -1.7539999 0.31999999
5.9970002 5.0440001 -1.756 0.30000001
5.9749999 5.0580001 -1.755 0.31
5.9710002 5.0869999 -1.758 0.30000001
5.9619999 5.112 -1.761 0.30000001
5.9559999 5.1220002 -1.761 0.31999999
5.9400001 5.1409998 -1.761 0.28
5.9380002 5.1719999 -1.766 0.33000001
5.9130001 5.1830001 -1.763 0.28999999
5.8979998 5.2030001 -1.763 0.33000001
5.8920002 5.2309999 -1.767 0.31999999
5.8769999 5.2509999 -1.767 0.31999999
5.8670001 5.2579999 -1.767 0.30000001
5.8439999 5.27 -1.7640001 0.059999999
-4.474 7.1719999 -1.904 0.31
-4.4980001 7.1609998 -1.905 0.31
-4.5229998 7.1500001 -1.906 0.31
-4.527 7.1079998 -1.898 0.31
-4.5310001 7.0890002 -1.895 0.31999999
-4.5549998 7.0770001 -1.895 0.30000001
-4.5630002 7.0409999 -1.8890001 0.31
-4.5879998 7.0320001 -1.891 0.30000001
-4.6139998 7.0219998 -1.892 0.31999999
-4.619 6.9819999 -1.885 0.30000001
-4.6329999 6.9790001 -1.886 0.31
-4.664 6.9790001 -1.89 0.28999999
-4.6799998 6.9549999 -1.888 0.31
-4.6989999 6.9369998 -1.887 0.31
-4.7280002 6.9320002 -1.8890001 0.31
-4.7340002 6.8940001 -1.883 0.30000001
-4.7610002 6.8870001 -1.885 0.31
-4.783 6.8959999 -1.89 0.33000001
-4.7870002 6.855 -1.882 0.28999999
-4.809 6.8400002 -1.882 0.30000001
-4.8390002 6.8379998 -1.886 0.30000001
-4.849 6.8070002 -1.881 0.30000001
-4.8800001 6.8039999 -1.885 0.30000001
-4.901 6.789 -1.885 0.31999999
-4.9050002 6.7719998 -1.882 0.30000001
-4.9229999 6.7509999 -1.881 0.28999999
-4.9530001 6.7480001 -1.885 0.28999999
-4.9699998 6.7270002 -1.883 0.31999999
-4.9860001 6.7049999 -1.881 0.28999999
-5.0139999 6.698 -1.8839999 0.28999999
-5.0289998 6.6750002 -1.881 0.31999999
-5.0359998 6.6620002 -1.88 0.31
-5.0640001 6.6560001 -1.883 0.31
-5.072 6.6230001 -1.878 0.31
-5.0949998 6.6100001 -1.8789999 0.28999999
-5.125 6.6059999 -1.882 0.30000001
-5.138 6.579 -1.8789999 0.28999999
-5.1539998 6.5570002 -1.877 0.30000001
-5.1690001 6.5549998 -1.8789999 0.30000001
-5.1820002 6.5289998 -1.876 0.30000001
-5.2049999 6.5159998 -1.877 0.30000001
-5.2280002 6.5029998 -1.878 0.30000001
-5.243 6.48 -1.876 0.31
-5.256 6.4549999 -1.874 0.30000001
-5.2789998 6.4619999 -1.878 0.30000001
-5.2940001 6.4390001 -1.876 0.30000001
-5.309 6.4159999 -1.874 0.31
-5.3410001 6.4130001 -1.8789999 0.31999999
-5.348 6.381 -1.874 0.31
-5.3660002 6.3610001 -1.873 0.31
-5.3899999 6.349 -1.874 0.30000001
-5.3959999 6.336 -1.873 0.28999999
-5.4130001 6.316 -1.872 0.30000001
-5.4419999 6.309 -1.875 0.28999999
-5.4450002 6.2729998 -1.869 0.31
-5.4710002 6.263 -1.872 0.30000001
-5.5019999 6.2589998 -1.876 0.28999999
-5.5050001 6.223 -1.87 0.28999999
-5.5190001 6.2189999 -1.8710001 0.30000001
-5.5450001 6.2090001 -1.874 0.30000001
-5.5489998 6.1739998 -1.868 0.31
-5.5770001 6.1669998 -1.8710001 0.31
-5.598 6.1500001 -1.872 0.30000001
-5.6110001 6.1259999 -1.869 0.28999999
-5.6290002 6.1069999 -1.869 0.28999999
-5.6500001 6.1110001 -1.873 0.30000001
-5.6529999 6.0760002 -1.867 0.31
-5.6799998 6.066 -1.87 0.31999999
-5.7030001 6.053 -1.872 0.28
-5.7059999 6.0180001 -1.8660001 0.30000001
-5.7309999 6.006 -1.868 0.31999999
-5.7680001 6.007 -1.874 0.30000001
-5.763 5.9829998 -1.869 0.28
-5.7750001 5.9580002 -1.867 0.28999999
-5.7989998 5.9450002 -1.869 0.28999999
-5.8109999 5.9200001 -1.867 0.28999999
-5.8249998 5.8969998 -1.865 0.31999999
-5.8530002 5.8889999 -1.868 0.30000001
-5.8660002 5.8649998 -1.867 0.28
-5.8800001 5.8600001 -1.868 0.31
-5.8990002 5.842 -1.868 0.28999999
-5.9089999 5.816 -1.8660001 0.30000001
-5.9219999 5.7919998 -1.864 0.30000001
-5.9499998 5.783 -1.867 0.30000001
-5.9569998 5.7529998 -1.863 0.28999999
-5.9650002 5.7420001 -1.863 0.28999999
-5.987 5.7280002 -1.864 0.28999999
-5.994 5.698 -1.86 0.28999999
-6.0170002 5.684 -1.862 0.28999999
-6.0380001 5.6680002 -1.863 0.30000001
-6.0469999 5.6409998 -1.86 0.28999999
-6.0679998 5.625 -1.8609999 0.28999999
-6.0819998 5.6209998 -1.863 0.28999999
-6.0929999 5.5949998 -1.8609999 0.28
-6.1069999 5.573 -1.86 0.28
-6.1279998 5.5560002 -1.8609999 0.28
-6.1220002 5.5159998 -1.853 0.30000001
-6.1479998 5.5050001 -1.8559999 0.28999999
-6.1700001 5.4889998 -1.858 0.28999999
-6.1680002 5.4710002 -1.854 0.28
-6.1849999 5.4510002 -1.854 0.27000001
-6.2020001 5.4320002 -1.854 0.28999999
-6.2129998 5.4070001 -1.853 0.28
-6.23 5.388 -1.853 0.28999999
-6.243 5.3639998 -1.851 0.28999999
-6.243 5.3309999 -1.846 0.28999999
-6.2680001 5.335 -1.851 0.27000001
-6.2940001 5.323 -1.854 0.28999999
-6.3000002 5.2940001 -1.851 0.28999999
-6.309 5.2680001 -1.848 0.28
-6.336 5.257 -1.852 0.28999999
-6.3379998 5.224 -1.847 0.27000001
-6.3530002 5.2210002 -1.849 0.28999999
-6.3649998 5.197 -1.848 0.28999999
-6.3889999 5.1830001 -1.85 0.28
-6.3930001 5.1529999 -1.846 0.28
-6.421 5.1430001 -1.85 0.28999999
-6.4299998 5.1170001 -1.848 0.28
-6.4510002 5.0999999 -1.849 0.28999999
-6.4679999 5.0970001 -1.852 0.28999999
-6.473 5.0679998 -1.849 0.28999999
-6.4899998 5.0489998 -1.849 0.28999999
-6.506 5.0289998 -1.849 0.28999999
-6.5250001 5.0110002 -1.85 0.28999999
-6.533 4.9840002 -1.848 0.28999999
-6.553 4.967 -1.849 0.30000001
-6.5549998 4.9520001 -1.847 0.30000001
-6.5749998 4.9349999 -1.849 0.28999999
-6.592 4.9159999 -1.849 0.28
-6.5970001 4.8870001 -1.846 0.27000001
-6.6230001 4.8740001 -1.849 0.31
-6.6490002 4.8610001 -1.853 0.28999999
-6.6490002 4.8449998 -1.85 0.28999999
-6.6669998 4.8260002 -1.851 0.30000001
-6.684 4.8070002 -1.852 0.28999999
-6.7010002 4.7870002 -1.852 0.28
-6.717 4.7670002 -1.853 0.28999999
-6.7309999 4.7449999 -1.852 0.28999999
-6.757 4.7309999 -1.855 0.28
-6.7690001 4.724 -1.857 0.30000001
-6.776 4.697 -1.854 0.31
-6.7969999 4.6799998 -1.8559999 0.28999999
-6.8150001 4.6609998 -1.857 0.28
-6.8369999 4.645 -1.86 0.30000001
-6.8410001 4.6160002 -1.8559999 0.30000001
-6.8579998 4.5970001 -1.857 0.28999999
-6.8699999 4.5890002 -1.859 0.28
-6.881 4.5650001 -1.858 0.28999999
